# .PCD v0.7 - Point Cloud Data file format
VERSION 0.7
FIELDS x y z
SIZE 4 4 4
TYPE F F F
COUNT 1 1 1
WIDTH 1383
HEIGHT 1
VIEWPOINT 0 0 0 1 0 0 0
POINTS 1383
DATA ascii
0.09235242 -0.01716222 -0.07109906
-0.09559206 -0.01256058 -0.08221453
0.01353214 0.01810157 0.0886521
-0.23063177 -0.01329367 -0.23155238
-0.00290229 -0.03345289 -0.30730414
-0.13250613 -0.01220592 -0.10360615
-0.00086037 -0.05625865 -0.01083702
0.25099091 -0.01859694 -0.2443025
-0.20888256 -0.01345540 -0.21740403
-0.00237011 0.01633536 0.09895353
-0.04354285 0.00429699 -0.12325724
0.02557227 -0.04339578 -0.13471461
0.09510684 -0.01710455 -0.0799883
0.2297698 -0.01479500 -0.17017495
0.02397936 0.02856999 0.09776224
0.03114588 -0.01422458 0.24708703
-0.05280055 0.00847799 -0.34806664
-0.00907832 -0.02799648 -0.41363891
-0.00079865 0.04907097 0.09843818
0.26969586 -0.01572524 -0.31581039
-0.0292755 0.01120646 -0.37197414
-0.00388165 0.03466308 -0.11873822
-0.08175745 -0.01608686 -0.11187542
0.00240669 0.03437447 -0.13656376
-0.06868766 -0.01739795 -0.00167875
0.17104565 -0.01702550 -0.19738546
-0.00845358 0.02368343 0.20267306
-0.00756101 0.11486020 -0.46891642
-0.02615632 0.00622637 0.13902535
-0.00246248 0.00170221 0.17899469
-0.16928059 -0.01690075 -0.09316982
-0.00742787 0.03929522 -0.44027001
-0.23732216 -0.01575639 -0.17636307
-0.20217236 -0.01168950 -0.15047472
-0.2025849 -0.01813647 -0.19329259
-0.02824794 -0.02864746 0.25421284
-0.02628724 0.02634721 -0.18973308
0.02257564 -0.02735940 0.13566391
-0.01515252 0.03286950 0.17989137
-0.008393 0.03447683 -0.0187283
0.0542408 -0.01384533 -0.10202145
-0.00567969 0.01990898 0.1926072
-0.02446871 -0.04937173 -0.15308226
-0.11152785 -0.01225002 -0.01682347
-0.00535284 0.07797284 -0.41809098
-0.04181201 0.00893194 0.03656274
-0.0155433 0.00520065 -0.23574403
0.25588433 -0.01847048 -0.25202696
-0.00537267 0.01825615 -0.420794
-0.03103523 -0.04548791 0.00060732
0.02843612 -0.02750350 0.24866422
-0.1046413 -0.01411958 -0.14740525
-0.04213293 -0.02477574 0.19009555
0.03720434 -0.03301789 0.01667972
-0.03522732 -0.02483571 0.14880164
-0.07066914 -0.01695426 -0.03457604
-0.02455021 -0.02291380 0.2131508
0.0386449 -0.00525251 -0.174972
0.13665453 -0.01250296 -0.12502826
-0.03055473 -0.01429457 0.16799659
0.02232252 0.00778583 -0.23928208
-0.27224487 -0.01680757 -0.29717994
-0.0748389 0.00455249 -0.34887767
-0.16832043 -0.01416066 -0.08000128
0.09658217 -0.01672726 -0.10806767
0.03418963 0.00985232 -0.17278437
-0.0687043 0.00836854 -0.36725721
-0.00303529 0.06445150 -0.34549734
-0.02180932 0.00962945 0.21271689
0.01383906 0.01181489 0.14838482
0.01776908 -0.02080544 -0.29528601
-0.00694607 0.09194066 -0.34362497
-0.00240607 0.03047117 0.10540226
-0.26283576 -0.01770207 -0.2154635
-0.01855917 -0.00829347 -0.4077
0.03002081 0.01790955 0.08576256
0.00179116 -0.02530260 -0.383463
0.0090637 -0.00855412 0.14340192
0.16062206 -0.01523947 -0.0780206
0.02212123 -0.04885422 -0.01377819
-0.03139781 -0.03505354 -0.3059362
-0.00913762 -0.03487883 0.21142512
0.01253356 -0.04761928 -0.23115431
0.03516203 -0.02369211 -0.2805227
-0.04602255 -0.00495685 0.06736774
-0.06679101 -0.01746672 0.00627409
0.02123334 0.00139252 0.14357866
-0.15832273 -0.01735631 -0.16540857
0.02012735 0.01493160 0.14401067
0.02338503 -0.04726628 -0.04844413
-0.00750147 -0.03550019 0.15766087
0.01395879 -0.03171996 0.21592576
0.14518841 -0.01644012 -0.18389165
-0.01877818 -0.02443001 -0.38853706
0.00617646 -0.01637893 0.03261742
0.04087405 -0.02597579 0.11921468
-0.20058686 -0.01745206 -0.21080593
-0.01671815 0.01539122 0.13617741
0.03448527 0.00433688 -0.31180273
0.03359274 0.00849672 -0.24277896
0.024989 0.02221407 0.12418281
0.1019543 -0.01800597 -0.03169793
0.22676539 -0.01491228 -0.26536801
0.09866265 -0.01721054 -0.07930487
-0.02001327 -0.03341974 -0.35116732
0.18009201 -0.01230737 -0.11589012
-0.07050992 -0.01668477 -0.05211016
-0.02488394 -0.02223194 0.21042637
-0.13028368 -0.01604012 -0.17017767
-0.00567533 0.00527952 0.13764573
0.03463961 -0.01067536 0.24070705
-0.02679526 -0.02478742 0.13919057
-0.02649213 -0.04372860 -0.24181844
-0.07734443 -0.01766347 0.00033348
-0.06945879 0.00483871 -0.29916356
0.03064201 -0.00880269 -0.39498964
0.01799437 -0.01743287 0.08213271
-0.04697596 -0.01424406 0.01033528
0.09123886 -0.01179917 -0.05043939
-0.04352053 -0.02529068 -0.12916091
-0.0431298 0.00580148 0.02936818
0.23181353 -0.01323491 -0.23564862
0.00132141 0.00922665 -0.41040138
-0.00624942 0.04342541 -0.201377
0.01026142 0.03367067 -0.05276674
-0.04211626 0.01030697 -0.00669888
0.0377598 0.00224408 -0.1330494
-0.00886286 0.03805158 0.04479232
0.01685816 0.02150060 0.1866407
-0.00306645 0.05456056 -0.35162053
-0.03176692 -0.04363364 0.1499866
0.04146356 0.00483534 -0.36735611
-0.07690093 0.00850204 -0.34422873
0.01943918 0.02153045 0.17552628
-0.00557855 0.05830188 -0.46336191
-0.00545962 0.02915614 -0.43860473
-0.04632035 -0.00453068 -0.32376449
-0.00501531 0.03690327 -0.34863651
-0.28939838 -0.01715766 -0.30017869
-0.00332517 0.10275295 -0.40508749
0.0199683 0.02607040 0.0545268
0.03421747 -0.01202743 -0.00448033
-0.02448994 0.00217002 0.16448604
-0.00358555 0.04767601 -0.45672944
0.22631947 -0.01904857 -0.1873247
0.02138786 -0.04722813 -0.12585185
-0.02269643 0.02459144 0.13855697
0.03153576 0.00239990 0.23978287
0.13686041 -0.01247158 -0.1238831
-0.03973562 -0.01167565 0.16976725
0.03908334 0.00359859 -0.07185823
-0.00715323 0.05275946 -0.38487507
0.00703404 -0.00325839 -0.39768666
0.28264003 -0.01622503 -0.3281325
0.02617225 -0.01338594 0.16078835
-0.13095634 0.00816014 -0.39028106
0.03053996 -0.02081372 -0.36422838
-0.00505559 0.04402617 -0.3569645
-0.04487585 -0.02404967 -0.05785185
0.27880194 -0.01788343 -0.24278695
-0.03945676 -0.02991168 0.1935545
-0.0075395 0.07425263 -0.46371515
-0.03703136 0.01603802 0.02253154
-0.0270676 -0.00653856 0.20052851
-0.0405091 0.00100078 -0.37431126
0.17757079 -0.01676789 -0.1097148
-0.07200525 -0.01110090 0.03031075
-0.00163265 -0.01943261 -0.3954693
0.01635534 0.00666636 0.22754007
0.27747326 -0.01539430 -0.23339393
-0.03363434 -0.04080086 0.15944884
0.00405753 0.03507163 -0.07595907
-0.00246145 -0.03544210 0.18343257
0.02387334 -0.01976557 0.14590967
0.22205767 -0.01870220 -0.20290903
0.05293688 0.00866633 -0.31400064
0.04324681 -0.01260251 0.12257406
0.01815588 0.02974496 -0.01127927
-0.02763425 -0.04796668 -0.00231904
-0.1979905 -0.01531879 -0.24588814
-0.00157191 -0.03611757 0.15733273
0.03272718 -0.01385551 0.25143991
-0.12338964 -0.01340053 -0.14535532
0.09210203 0.00811125 -0.40959789
-0.04499385 -0.00422225 0.15883682
-0.04489491 0.00247981 -0.07045111
0.10354476 0.00834420 -0.36911879
0.02528913 0.00478117 0.22851107
-0.00677133 0.03201017 -0.30700905
-0.02376103 -0.03958578 0.22728985
-0.07720038 -0.01059551 0.01942876
0.00870403 -0.01773664 0.13714904
-0.09045095 -0.01757694 -0.02892321
0.03094655 0.01798540 0.02649963
-0.00679772 0.01246009 -0.37218667
0.03407658 -0.02611573 -0.28232507
0.01396311 0.02964522 -0.17487396
-0.00083515 -0.02521235 0.2288258
-0.00588237 0.11349332 -0.5185938
0.0330009 0.00684051 -0.31306147
-0.020025 -0.02127147 -0.38015792
-0.04810454 0.00466207 -0.32955156
-0.00999866 -0.05548926 0.04602811
-0.11275737 0.00809309 -0.41560725
0.17920739 -0.01350871 -0.1993761
-0.03757204 -0.03854166 0.09583251
-0.01012002 0.00910605 -0.23856815
-0.19154451 -0.01442738 -0.22295316
-0.03993351 -0.01318855 0.14931244
-0.01126077 0.01625919 0.12088706
-0.02470753 0.02750258 -0.18240526
-0.00607865 0.08875276 -0.42743385
0.22950201 -0.01866490 -0.18222235
0.03614339 -0.03475372 0.02951076
-0.25851813 -0.01749225 -0.26852368
-0.01036089 0.03489291 -0.10227452
-0.00423813 -0.05598728 -0.02001363
-0.00730902 0.04323659 -0.41618888
-0.02276025 0.00220239 0.17137663
0.0359058 -0.02707365 0.20549723
0.04150803 -0.00201663 0.00356036
0.03854523 0.00674995 0.01443967
0.02464262 -0.02908326 0.2451558
-0.19982283 -0.01517317 -0.12270904
-0.00688231 0.07081489 -0.33027802
0.11408712 -0.01173178 -0.06987742
-0.00634604 -0.04107738 -0.31662082
-0.12321899 0.00825959 -0.38689134
0.19664059 -0.01708509 -0.22207285
0.02061659 -0.01369319 -0.06262682
0.07499544 0.00860671 -0.32401185
-0.00250863 -0.03028316 -0.41365768
-0.00342531 0.09003735 -0.42431222
-0.00492974 0.05489399 -0.33175049
-0.01844982 0.02261678 0.19171317
-0.03912515 -0.03616164 0.13630575
-0.0447948 0.00885297 -0.28295595
-0.0125873 0.02973534 0.07283856
-0.02573753 -0.02043792 0.23072291
0.06691082 0.00460930 -0.33704276
-0.0107002 -0.00325619 -0.41545478
-0.00289667 0.03296086 -0.31667949
-0.00362501 0.11247504 -0.46607449
-0.19190052 -0.01193724 -0.15084499
-0.09109564 -0.01120948 -0.02038659
-0.17716252 -0.01429599 -0.20884575
-0.00938326 -0.05464365 -0.14750347
0.00169439 0.02683588 0.03325518
0.03135571 -0.01740837 0.05623754
0.0598657 0.00873044 -0.30277545
-0.00238492 -0.01248407 0.26051217
-0.00552931 0.11575130 -0.45466274
-0.00785625 0.12204995 -0.41900639
-0.02970143 -0.01949987 0.18256635
-0.25929105 -0.01873520 -0.24248375
0.03918135 0.00418469 0.14629204
0.12662835 -0.01253352 -0.04331491
-0.00316019 0.05437726 -0.37066792
-0.04585163 -0.01588914 -0.2061607
0.02005113 0.02675818 -0.1525892
0.0371922 -0.00147363 -0.31599904
0.00758831 -0.02734207 -0.41546727
0.13474796 0.00679862 -0.42121137
0.01247089 -0.00508436 -0.2953506
-0.00279626 -0.01317137 0.06865441
0.02372755 -0.01977626 0.17894442
0.20149085 -0.01749066 -0.21815765
0.03286489 -0.02049566 -0.35933092
0.01801621 0.01119598 0.16541917
0.00101409 -0.04510474 -0.28810465
0.04278676 -0.01682214 -0.00400495
-0.03568817 0.00463364 -0.33418164
0.03180825 -0.03739702 -0.08525489
-0.00539563 0.01532112 0.11664642
0.26366462 -0.01280207 -0.25224484
-0.0183544 -0.02379513 -0.29470359
-0.01599128 0.04385715 0.08227714
0.03429093 -0.02911528 -0.22042532
-0.0121467 -0.05359969 -0.17965388
-0.00679159 0.00896691 -0.26264149
-0.00399209 0.05875860 -0.27235916
-0.04200375 -0.00330230 -0.37800347
0.25273025 -0.01556690 -0.29915256
-0.01086982 0.01535006 0.13686186
-0.02928208 -0.02455909 0.22857615
0.03883677 0.00635480 0.00479465
-0.01240318 0.03455744 -0.07033718
0.26997256 -0.01839253 -0.26802967
-0.02068379 -0.05212431 0.04339182
-0.00729138 0.08165437 -0.41352248
0.03480357 -0.03192411 0.19343488
0.06515993 -0.01753090 0.00309334
0.0065022 -0.05368589 -0.16027982
-0.20298831 -0.01723410 -0.21793778
0.03643884 -0.02626060 -0.11775317
-0.03286804 -0.04428954 0.03500309
0.1316109 -0.01481297 -0.1878031
-0.00487173 0.08000066 -0.3205841
-0.02468343 -0.04266489 -0.26971449
0.03152168 0.01203489 0.20508197
-0.22977754 -0.01537748 -0.2724463
0.00710391 0.01138897 0.16049784
-0.13702304 -0.01668447 -0.16309278
-0.0464579 -0.01272748 -0.23501635
0.08003255 0.00455889 -0.3455882
-0.02656833 0.01234628 -0.36784433
0.02375355 0.02343651 0.05373319
0.03829563 -0.00955737 -0.31934522
-0.00243509 -0.01390613 0.20875022
-0.13031622 0.00800120 -0.43177456
0.02062054 -0.04729650 0.17090141
0.01021177 -0.04825440 0.20511711
-0.00728101 0.02319987 -0.41010344
0.00347488 0.01644016 0.26859215
0.14304952 -0.01320018 -0.16117316
-0.00326172 -0.04722312 -0.27067737
-0.00548609 0.04653157 -0.44433718
0.03052059 0.01013111 -0.29742331
0.01363039 -0.01202941 0.01555866
-0.0328102 -0.03892660 0.18983752
-0.01499254 0.01169904 -0.39571882
-0.01781002 -0.04046216 -0.30968162
-0.00663756 0.04778228 -0.28012915
0.1131187 -0.01089773 -0.03315922
0.01506845 -0.04738635 -0.21887133
0.01343608 -0.02044217 -0.35587408
0.0086214 0.01511993 0.26902244
0.06609126 -0.01095997 0.01017096
-0.04285804 0.00071695 0.18278822
-0.02135487 0.02969935 -0.16537467
0.04547302 0.00493940 -0.28014982
-0.04314585 -0.02950846 0.06507887
-0.22618163 -0.01593860 -0.26934849
0.01737448 0.02762496 0.0428201
0.24660303 -0.01717101 -0.27092642
-0.18974913 -0.01252336 -0.17361921
-0.02591509 -0.04836390 -0.14533957
-0.00756842 0.08610512 -0.46985646
0.02110817 -0.02516741 0.14771398
-0.03555081 0.00397290 0.12539531
-0.18852999 -0.01460968 -0.22418242
-6.88e-05 -0.03750946 0.24478752
-0.07200403 -0.01536620 -0.12578592
-0.21023649 -0.01891308 -0.15566783
-0.0025983 0.03413451 -0.25621368
-0.03613795 -0.03850067 -0.18297821
0.2262155 -0.01371089 -0.24077836
-0.04083171 0.00684338 -0.33703718
0.12011535 -0.01184590 -0.08066958
0.01009928 -0.01377003 0.143427
-0.0084463 -0.02311130 -0.41367021
0.00504589 -0.05516706 0.10601086
-0.02769862 -0.01221099 0.15162257
-0.04939862 0.00883935 -0.28538007
-0.09605423 0.00417949 -0.41384701
-0.00642521 -0.00070607 0.13826976
-0.03437104 0.00863546 -0.32055945
0.00822306 -0.01794705 -0.3955266
0.0125841 -0.03610837 0.20988744
-0.02175655 0.01700269 -0.35904849
-0.00372567 0.08509614 -0.48597454
-0.13985602 0.00478219 -0.42577366
0.02361539 -0.04412619 0.18394429
-0.00083347 -0.01291363 0.23596544
-0.18503899 -0.01415113 -0.21224646
-0.00322346 0.08409394 -0.38413085
-0.03416593 -0.03517359 -0.28876408
-0.00692372 0.01540771 -0.33745384
0.01654941 0.04269845 0.09564614
-0.00612872 0.02984077 -0.17662599
-0.07078735 -0.01131454 -0.00478577
-0.04558153 -0.02263999 -0.03668979
0.02264804 0.03556980 0.10417352
-0.00320179 0.00505027 -0.26164946
-0.02001947 0.02190867 0.2156123
-0.03499819 -0.04101253 0.13049869
-0.0794373 -0.01666638 -0.0693616
0.0115408 0.00911398 -0.23689306
0.01461617 -0.02192318 -0.38770668
0.00797392 -0.05523327 0.07470213
-0.00260604 0.04503694 -0.18386316
-0.01597449 -0.03745251 0.26377334
0.00642246 0.00492748 -0.28280743
-0.03179226 -0.04111147 -0.22767086
-0.28697874 -0.01803434 -0.28560774
-0.02677543 -0.03094341 0.25707771
0.13772756 -0.01126072 -0.06351459
0.01210582 0.02114408 0.23217255
0.03921975 0.00431930 0.0675366
-0.00476237 -0.02230153 -0.41369313
-0.01561139 -0.04277448 0.23320422
-0.10137067 -0.01435911 -0.14957358
0.04147758 -0.01882259 0.16806719
-0.0323464 -0.01401692 0.22267773
-0.13149424 -0.01710215 -0.13403551
-0.13568098 -0.01691753 -0.15377141
0.02688739 -0.04480497 -0.02761931
-0.0035665 0.10424470 -0.45401018
-0.09577282 -0.01236753 0.00719854
0.05769306 0.00430033 -0.39074115
-0.00482431 -0.03722306 0.21121288
0.04729042 0.00838475 -0.36288876
-0.01652726 0.03306007 -0.12959479
0.02519299 -0.01311000 0.17410136
-0.00838734 0.03387451 -0.15550872
0.06606189 -0.01303918 -0.07899346
0.02693481 0.02001095 0.13123095
0.0389221 -0.01031983 -0.21678147
0.11357979 0.00606785 -0.37023798
-0.20096511 -0.01744670 -0.21130413
0.01137804 0.01557043 -0.36827985
0.26592488 -0.01252935 -0.24855573
-0.03582262 -0.01614829 0.24764933
0.02521856 -0.03848928 -0.25166448
0.19577034 -0.01833413 -0.17996373
0.26136434 -0.01889261 -0.24839037
0.01302791 0.03584898 0.16902373
-0.03188906 -0.04367795 -0.16361145
-0.13984838 0.00575596 -0.42423257
0.11181924 -0.01522297 -0.17654756
-0.00734644 0.01784104 -0.42326548
-0.05836241 0.00524690 -0.28238239
-0.00331442 0.11798632 -0.40328511
-0.01290659 -0.03107400 -0.29507486
0.01420944 -0.03211734 0.15240073
-0.00221007 0.12848956 -0.49774036
0.21606553 -0.01540814 -0.26684189
-0.02714539 -0.00734321 0.2174898
0.25806044 -0.01594414 -0.3092997
-0.13628132 0.00817472 -0.4017835
-0.00376413 0.12108172 -0.49448217
-0.04438425 0.00181263 -0.18469672
-0.19242397 -0.01224931 -0.16462773
-0.00504428 0.00526402 -0.22461404
-0.04577528 -0.01617494 -0.19883863
0.02174073 0.03389506 0.08985209
-0.02010778 0.01141783 -0.39004217
-0.15773971 -0.01371151 -0.18167181
-0.2120383 -0.01718145 -0.22822614
-0.0115582 0.01634680 0.26458696
0.03296325 -0.03974658 0.05494675
-0.18858994 -0.01569218 -0.1119779
-0.00300874 0.05425157 -0.24329382
0.16031712 -0.01815964 -0.12733972
-0.02178174 -0.05035974 0.1467452
0.00079698 0.01878051 0.17055148
0.02215823 -0.01698760 0.14226478
-0.1312302 -0.01610687 -0.03996941
0.15557496 -0.01800874 -0.12888794
-0.04859676 -0.01107356 0.02736521
-0.04572957 -0.00764833 -0.11082187
-0.04019752 -0.03546250 0.09133574
0.03845496 -0.01868402 -0.14888128
-0.00062551 -0.05625341 -0.01778787
-0.20896249 -0.01649382 -0.14268006
0.01256764 -0.02320057 -0.30597176
-0.17531522 -0.01330611 -0.18761717
0.12306774 -0.01685549 -0.14751711
-0.01555331 -0.00925225 0.14956965
0.08908003 -0.01607449 0.00913903
-0.02945357 -0.04291075 -0.22330962
0.18201823 -0.01788486 -0.18524189
-0.0051978 0.06007270 -0.38617475
-0.03066147 -0.01498971 0.19816993
0.02846597 -0.01119872 0.14720255
-0.03501299 0.01334734 -0.31525552
0.00366245 0.04137011 0.16303524
0.03100996 -0.01333090 0.2431159
-0.01441833 -0.05033787 0.18029751
0.0239749 0.02100093 0.1071843
-0.09128091 -0.01675644 -0.08467695
0.07898566 0.00454038 -0.34881127
-0.17801903 -0.01529719 -0.22950698
-0.02567654 -0.02469173 0.17361096
0.11929033 -0.01784978 -0.07372734
-0.21093031 -0.01431865 -0.2362675
-0.05629201 -0.01668132 0.05385266
0.03454126 -0.01228370 -0.01578828
0.03530469 0.01457537 -0.0388394
-0.01292341 -0.00233057 -0.3668161
0.03045717 -0.03362102 -0.2395935
-0.0201643 -0.02096854 -0.38920732
0.03203489 0.00899592 -0.25712972
-0.13454622 0.00811113 -0.4127807
-0.02319045 0.01854184 0.08131086
0.00348494 0.01912497 -0.3570943
-0.16099083 -0.01630596 -0.19549473
0.04329769 -0.01269180 0.13439388
-0.07369995 -0.01053582 0.02542297
-0.17218111 -0.01850707 -0.10196153
-0.17020438 -0.01636107 -0.0926472
0.07311749 -0.01470143 -0.13910308
0.03963063 -0.01139289 -0.10528312
-0.2253054 -0.01223340 -0.19641331
0.21101987 -0.01396399 -0.23379956
-0.04183919 -0.02805612 -0.2469058
-0.04062947 -0.03454909 0.09023687
0.14852175 -0.01295156 -0.07087402
0.04229525 0.00496442 -0.27586008
0.09630974 -0.01238386 -0.08048165
0.04067324 -0.02438792 0.01928334
-0.04397724 -0.02262034 0.12632689
-0.00687555 0.11276183 -0.37977791
-0.01524405 0.03907823 0.05814081
-0.0556305 -0.01148927 0.0027659
0.03293597 -0.03348643 -0.15999145
0.03255114 0.01621948 0.02029955
-0.03911906 -0.00078824 0.1348911
-0.27829827 -0.01654600 -0.30894616
-0.00527348 0.01890022 0.07498718
0.02479286 -0.01690508 0.18589917
-0.06158294 0.00486887 -0.2938402
-0.00686646 0.02583440 -0.32614739
-0.00204697 -0.01005638 0.11553257
-0.01331698 -0.05483615 -0.10129455
0.02654304 -0.03895363 0.2067209
-0.03417313 -0.02158790 0.24934714
-0.02661998 -0.03988464 -0.28915565
0.02301936 -0.00200042 0.1732716
0.25520047 -0.01275258 -0.24452873
0.00697146 -0.01350543 -0.04123338
0.0085432 -0.02185408 0.13768215
-0.00083632 -0.03264878 0.22286398
-0.01319295 0.00526412 -0.224707
-0.04688209 -0.00845768 -0.32532778
0.05228489 -0.01402562 -0.10784682
0.03122011 -0.02881651 -0.29829861
-0.00706407 0.04147334 -0.3665023
0.01044066 -0.00618925 -0.34695103
0.04180993 -0.00377019 0.03180637
0.07410344 0.00804807 -0.4207775
-0.0460971 -0.00924765 -0.17738408
-0.01906281 -0.03581467 0.2439812
0.01049801 0.04710437 0.11862488
-0.0452174 -0.01898038 -0.30825907
-0.0041516 0.07816103 -0.44618798
-0.14883936 -0.01629812 -0.064531
0.01257285 -0.05237917 -0.12124979
0.05255356 -0.01099049 0.02208527
0.01801054 -0.04942005 0.15858925
0.0276741 -0.04294827 0.16213461
-0.00820818 -0.05556225 0.0900882
0.02269785 -0.02229032 0.1482429
-0.21771035 -0.01614836 -0.2562551
-0.00372736 -0.04214815 0.21550008
0.01446025 0.01037764 0.1774296
-0.00719543 0.02455598 -0.39279434
0.02736771 -0.01599221 -0.03188783
0.00425515 0.01227271 0.26295412
-0.01177805 -0.05073730 -0.22237168
0.04793608 -0.01575360 -0.08530071
-0.08715524 -0.01146646 -0.02740381
-0.00240665 0.00874710 0.23607356
0.04246421 -0.01281647 0.00171759
-0.00962815 0.01146475 0.24438658
0.00569019 0.02780796 0.20050596
0.02465099 0.01880664 -0.24669112
0.07211793 -0.01398203 -0.12384848
-0.00738825 0.01991571 0.2529197
0.01252167 -0.05191183 -0.14519265
0.02179455 0.00895541 -0.2642327
-0.00245919 0.00727187 0.18182584
-0.00064146 0.03275782 -0.18571983
-2.604e-05 0.01555885 0.13312011
-0.03829807 0.01337475 -0.2187559
0.01928052 -0.01209842 0.00708696
-0.01865909 0.04423128 0.12620797
0.16455007 -0.01862866 -0.10343101
0.03903643 -0.01402915 -0.09504734
-0.1545283 -0.01440768 -0.19299702
-0.01153142 -0.00899048 -0.41373628
0.01673816 0.00644312 0.25854161
0.21683986 -0.01438884 -0.24695942
0.19053879 -0.01538559 -0.24611609
0.01382103 0.03171705 -0.11516702
-0.03489169 0.01692353 -0.2435218
-0.04105794 -0.00227494 0.21293628
0.06875593 0.00810423 -0.41111357
0.0197218 0.01487287 -0.35339249
0.08486908 -0.01321009 -0.10470803
0.12378457 -0.01311769 -0.13879524
-0.00278887 0.06024753 -0.29543544
0.04275507 -0.01812420 0.14077007
0.03328714 -0.03817761 0.15267747
-0.03799509 -0.01326256 -0.29505435
-0.12228123 -0.01131482 -0.05565243
0.00288339 -0.00091927 -0.40484838
-0.03101352 -0.01551303 0.1400635
-0.00668563 0.02520822 -0.28947494
0.13432382 -0.01164570 -0.08594938
0.01082587 0.03183902 -0.14584152
0.11749392 -0.01687284 -0.1362313
0.23286201 -0.01372499 -0.23846016
0.01395681 -0.00307589 0.13443869
-0.00473437 0.03837308 -0.1408861
-0.03219445 0.02022367 0.0471899
-0.28055582 -0.01948772 -0.24394049
-0.03452356 0.00566198 0.15376672
-0.05120666 -0.01085208 0.03419013
-0.0319585 -0.00404726 0.22709327
0.02638494 -0.03799365 -0.24599258
0.2408985 -0.01889541 -0.22410639
0.15392119 -0.01585343 -0.20554519
-0.19767251 -0.01701594 -0.21726978
-0.00711313 0.07781740 -0.37723081
-0.03641876 0.01254305 -0.30073285
-0.00733322 0.05791063 -0.42149324
0.03263431 0.01707592 -0.00512603
0.16206568 -0.01652658 -0.1991425
-0.06790428 0.00426175 -0.39923193
-0.24520241 -0.01544511 -0.18429714
-0.00839576 0.00015937 -0.29054425
-0.139783 -0.01212411 -0.10731143
0.14090983 -0.01291969 -0.06014006
-0.02027643 -0.02009960 -0.38881636
-0.00083767 -0.02039757 0.19755755
-0.0242863 0.00493189 -0.28245992
0.13441327 -0.01138340 -0.07478204
0.01361487 -0.01900716 -0.35839417
-0.05275481 -0.01575043 -0.08204012
-0.01116094 -0.03798610 0.25694955
0.01941632 0.01814385 0.08788033
-0.0024302 -0.01760021 0.21414308
-0.04169007 0.00157421 0.15647856
0.07938238 0.00735900 -0.42386944
-0.07999912 0.00815951 -0.40364764
0.15443246 -0.01453284 -0.20029034
-0.07900523 -0.01639645 -0.08644661
-0.00346018 0.11083026 -0.43263496
-0.00083344 -0.01535201 0.23843395
0.21646737 -0.01887476 -0.18114415
0.00330154 0.01861260 0.16713976
0.03585425 -0.03085095 -0.08550691
0.00447903 0.01286368 0.15893468
0.02400118 0.00157139 -0.39025364
-0.15996382 -0.01745304 -0.16195591
-0.28132199 -0.01744239 -0.23830672
-0.00237511 0.04303075 -0.21116504
-0.03143623 0.02354850 -0.13808139
-7.815e-05 -0.04103148 -0.31688303
-0.19617711 -0.01163642 -0.14229865
0.01095822 -0.05348684 -0.09826404
0.22293798 -0.01558461 -0.27584929
0.01139481 0.02712186 0.1827426
0.01386604 -0.01704351 0.06340478
0.0029984 -0.01203990 0.02550297
-0.0379905 -0.03721013 -0.07108948
0.02267944 -0.01417455 0.1468504
-0.00349201 0.00037962 -0.41959684
0.03436568 0.00822763 0.2049825
0.00205506 0.00005318 -0.32435758
-0.01234922 0.02558110 -0.2768673
-0.00084062 -0.01127278 0.15780168
-0.00589563 -0.03564732 0.26304195
-0.02281732 0.02540722 0.06627547
-0.02448108 0.02961297 -0.02719532
-0.03373731 -0.01094253 0.14717813
0.07316436 0.00846727 -0.34822569
-0.00284142 0.06855563 -0.30628032
-0.13610505 -0.01238612 -0.11482373
-0.00603582 0.01156574 -0.38442399
-0.0542297 -0.01333369 -0.07421618
-0.04592828 -0.01480499 -0.33346098
-0.07749309 -0.01211809 -0.04556337
0.04804282 0.00824347 -0.38730454
0.07212659 0.00464923 -0.33004766
0.03798719 -0.01495852 -0.28267899
0.00966546 -0.02768348 -0.38528213
0.06509304 -0.01697297 -0.03434001
-0.00352725 0.05042349 -0.44492211
0.01958719 -0.02676328 0.14840677
-0.0031354 0.03589655 -0.04618358
-0.00757957 0.11462426 -0.47267928
0.01316495 -0.02127108 -0.38537795
0.10635507 -0.01636053 -0.14619939
0.02709485 -0.01573355 0.18080924
0.03878866 -0.03020740 0.04661359
0.03735677 -0.01347310 -0.35113642
-0.06212629 -0.01638638 -0.05679412
-0.14122137 -0.01357671 -0.16578648
0.0220005 -0.03241825 0.25132674
0.08201574 -0.01627890 -0.11180683
-0.01107285 0.01086846 0.26964784
-0.00264769 0.05683129 -0.26675121
0.04237035 -0.01698490 0.00769517
0.0753841 0.00419495 -0.40875225
-0.00311579 0.08006653 -0.36217711
0.13335544 0.00395474 -0.44951657
-0.00317266 0.07143369 -0.37355291
-0.00339587 0.07850695 -0.41891352
0.00535772 0.03484714 -0.10908323
-0.12838793 -0.01692639 -0.14008487
-0.04642011 -0.00790335 0.05446875
0.00351366 -0.03242183 -0.41718063
-0.01507006 0.00906622 -0.24554393
0.0366377 -0.01577979 -0.3433621
0.0105475 -0.02390949 -0.383629
-0.01881928 0.00522732 -0.23116162
-0.02547636 -0.02110179 0.16211428
0.22473979 -0.01849111 -0.2199568
0.02626326 -0.02853393 0.14508634
-0.06152509 -0.01303137 0.06351337
-0.02441993 0.00030222 -0.39547144
-0.00979939 -0.05579012 0.06870669
-0.00734731 0.08717409 -0.42492059
0.04134742 -0.02444895 0.08794467
0.10155677 0.00807704 -0.41540499
0.0019592 0.02136409 -0.33116458
0.01035212 0.03320112 -0.10840842
-0.00357791 0.07479880 -0.45572958
0.06527431 0.00865109 -0.31645807
-0.00082945 0.01239881 0.25663534
-0.00709236 0.08722358 -0.37323095
-0.05182897 0.00476006 -0.31260141
-0.02309436 0.00613094 0.18510223
-0.02714635 0.00866989 -0.3144728
0.00623814 -0.03072159 -0.34532389
-0.0038947 -0.04351685 -0.30309326
-0.00319509 0.06085009 -0.37786417
-0.03905098 -0.00897952 0.23010418
-0.04556098 -0.00472075 -0.15446173
0.03060834 -0.03684447 -0.15946819
-0.0750464 -0.01754934 -0.00308672
0.05047256 0.00443208 -0.36800078
0.04146813 -0.00650550 -0.05285635
0.00073675 0.03044575 -0.21901398
0.05203871 0.00829234 -0.37880261
-0.01572481 -0.01992983 0.1390974
0.00766907 -0.01735485 -0.29021903
0.09871619 0.00823010 -0.38895353
-0.12511538 0.00404095 -0.43828
0.1385255 -0.01700908 -0.16472599
-0.00731804 0.11609820 -0.41963135
-0.0033538 0.08038098 -0.41035792
-0.27470232 -0.01865249 -0.25985379
-0.02332775 -0.04074910 -0.29731673
-0.01052562 0.03217506 0.03342986
-0.00873716 -0.02754020 0.14316892
0.02900212 -0.01513719 0.2122246
-0.06021274 0.00816871 -0.40177967
-0.04511849 -0.02451195 -0.02300097
-0.00046318 0.03357445 -0.16860906
-0.12232861 -0.01171926 -0.03434649
0.13569092 -0.01216180 -0.10944895
-0.04614353 -0.00687647 -0.08181942
-0.14913914 -0.01347566 -0.1700937
-0.11799448 0.00818447 -0.39984129
0.01167373 0.01245741 0.19532754
0.01226461 0.04118416 0.0735575
-0.00529928 0.02347420 -0.40601037
0.04051359 -0.00591318 0.19556402
0.00031887 0.03508147 -0.02285287
0.02442141 -0.04704478 0.14437852
-0.00651666 0.02288966 -0.25510246
-0.01784909 0.01151401 0.209977
0.04120019 -0.01739121 0.03721864
-0.00532837 0.08915580 -0.41330487
0.23155076 -0.01697038 -0.26001702
-0.02632828 0.00860591 -0.32558582
-0.03034678 0.02277376 0.01886867
-0.08008507 -0.01591090 -0.12051411
-0.25826145 -0.01434545 -0.2745999
-0.16037375 -0.01774966 -0.14306585
-0.0296189 -0.02469179 0.26344716
-0.21610692 -0.01435452 -0.14734231
-0.03256204 -0.04482444 0.05928753
-0.00084236 -0.02340113 0.14990782
-0.02741239 0.03021813 0.14406615
0.00596384 0.01656535 0.14438853
-0.04609864 -0.00821849 -0.20218321
-0.03737572 0.01660708 0.00343654
-0.00349869 0.13331148 -0.48080739
-0.04510546 -0.00005087 -0.16714557
-0.04510394 -0.02477101 0.07690199
0.09159984 -0.01780316 -0.02657417
-0.00337429 0.06931852 -0.41432761
0.01679033 0.02825746 -0.18019925
0.00596109 -0.03093554 -0.34602383
0.0356804 0.00621237 -0.18006198
0.02141729 0.02598837 0.02204664
-0.03131337 -0.04436945 -0.13721515
0.02212273 -0.02855805 0.1572613
-0.00439894 -0.03357367 -0.35010513
-0.04361625 0.00250970 -0.32855274
-0.00753254 0.06223839 -0.46201976
0.00989614 0.03182212 -0.15696313
-0.17702799 -0.01769539 -0.17657199
0.00994297 -0.00641658 -0.41876999
0.13011013 -0.01154392 -0.07746077
-0.03492344 -0.00718112 -0.29510429
-0.0169854 -0.05343347 -0.05395374
-0.02769825 -0.02207479 0.2729469
-0.00287422 0.05727453 -0.31266603
-0.15540086 -0.01193662 -0.11477678
-0.18563844 -0.01419064 -0.2135134
0.02357025 0.02659278 -0.05407588
0.02165951 0.02728954 -0.09066688
-0.01308116 0.03440108 -0.03065372
-0.00457348 0.04694068 -0.25931066
-0.03687924 -0.01382144 0.16529415
0.04478259 0.00445121 -0.36476689
0.03637806 -0.01690441 0.01318797
-0.02035533 -0.02096770 -0.42275757
-0.0008433 -0.03639961 0.17585459
-0.03562009 0.02060731 -0.05349535
-0.23499573 -0.01191834 -0.19261728
0.10644726 -0.01744391 -0.07771828
0.02425701 0.01839990 0.14095803
-0.00302856 -0.03338451 -0.29253097
0.09459815 -0.01435180 0.01535133
0.06536749 0.00467270 -0.32607893
0.0307695 -0.04144243 -0.02304112
0.04669547 -0.01646706 -0.03501578
0.01837404 0.02928418 -0.11728453
-0.04377944 0.00265007 -0.25741169
-0.0380574 0.01225408 0.1087675
0.01317881 -0.00222871 -0.29495742
-0.00751125 0.10529681 -0.45864288
0.19138152 -0.01195175 -0.15485329
0.00181938 0.01888890 0.16597205
0.03239905 -0.01057034 0.05979242
0.02096594 0.00870773 -0.30720107
-0.06730013 0.00440707 -0.37401589
0.10712844 0.00429896 -0.39024438
-0.02288326 -0.05122969 0.09069357
0.02050342 -0.02337217 -0.37555673
-0.00328907 0.02113242 -0.39602481
-0.10078842 -0.01111764 -0.02604686
-0.00028715 0.01261789 0.1547838
0.00718193 -0.00980748 -0.39556821
-0.04580895 -0.00640614 0.13462685
-0.04534255 -0.00807865 0.12421281
-0.00349192 0.04056156 -0.43760284
-0.00434604 0.00888286 -0.27717569
0.01404072 0.02934086 0.02756073
0.00465924 0.01504766 0.22177179
-0.03458594 0.00883990 -0.28505779
-0.03907901 0.01543294 -0.06793598
0.0245973 -0.00618493 0.18985537
0.1782281 -0.01462627 -0.09699681
-0.01541493 -0.00433039 -0.41124888
0.14861451 -0.01457863 -0.19659134
0.0116389 0.00869116 -0.3102189
-0.0576993 -0.01273442 -0.05217983
0.03860182 0.00175467 -0.09646346
-0.00199558 0.12988566 -0.45425826
-0.00534979 0.01719262 -0.41613824
0.0780351 -0.01505010 -0.14601642
-0.00355571 0.07477276 -0.45123635
-0.19363974 -0.01277401 -0.18810992
0.15925069 -0.01858688 -0.09662162
0.0106747 0.01007698 -0.39183764
-0.01641278 0.03136530 0.18083435
-0.04661977 0.00863340 -0.32107833
-0.00305343 0.03656196 -0.34859917
-0.01934768 -0.04846689 -0.22177615
-0.00751958 0.05227662 -0.45918414
0.00484998 -0.05549949 0.08843256
-0.03572242 0.01607901 0.07210477
0.01375633 -0.01750342 -0.37194372
0.0058112 -0.03523101 0.26670065
-0.00293604 0.04001356 -0.3248239
-0.04245104 0.00438489 0.1407507
-0.00298376 0.00877087 -0.29657399
-0.0067503 0.04919807 -0.30305053
0.01061821 -0.03733735 0.25572216
-0.00939917 -0.03482632 0.16626164
-0.00303902 0.04807690 0.13366986
-0.15595169 -0.01430110 -0.06065902
-0.01811427 -0.04637837 -0.25314973
-0.02118524 0.03126278 -0.07565812
-0.02078049 -0.03014931 0.18074848
0.03359856 -0.00884943 0.24705777
0.09060837 -0.01771400 -0.03079613
0.09995016 -0.01391934 -0.1446898
0.01727545 0.01923217 0.23078748
-0.00325264 0.08365826 -0.38999294
-0.01769244 0.04164308 0.07510674
0.05223442 -0.01597705 -0.07806124
0.09242369 0.00808260 -0.41455849
-0.00553446 0.00641391 -0.43070277
-0.00365888 0.10342494 -0.47272717
0.00510972 -0.01676312 0.0604178
0.01467653 0.02209861 0.19480065
-0.00370139 0.08256205 -0.48098927
-0.04218125 -0.03045649 0.13456815
0.1257983 -0.01700250 -0.14257864
0.0062474 -0.05501182 -0.05666333
0.18241833 -0.01499932 -0.23189798
-0.04065645 -0.03398749 0.1161085
0.02456708 -0.01770378 0.17350371
-0.01405872 0.01976996 0.18990114
0.28332951 -0.01497007 -0.31145363
0.0126922 0.03099888 0.00420881
-0.02791908 0.01688784 0.21532113
0.08869973 0.00830014 -0.3769756
-0.04497938 0.00854112 -0.33711371
-0.01734967 -0.05116124 -0.19101582
0.24881735 -0.01414553 -0.20030476
-0.00832051 0.13138545 -0.43374824
-0.01721658 0.03318548 -0.09075393
0.03863472 0.00039067 0.20198322
0.23874324 -0.01747284 -0.25636806
-0.04699687 -0.01044115 0.01226069
-0.02527918 -0.01965300 -0.39237189
0.10373252 0.00817527 -0.39836676
-0.01883139 -0.00461764 -0.29519823
0.20490793 -0.01214941 -0.17655565
-0.0805415 0.00849024 -0.34632389
0.01626797 0.00877412 0.17191157
0.03402978 0.01195246 -0.11758615
0.07380368 -0.01232697 -0.0560415
-0.02385839 0.01449656 0.24338548
-0.00353771 0.11391632 -0.44842383
-0.00528366 -0.05588330 -0.06205333
0.03910601 -0.00869446 -0.19087355
-0.00238474 0.00386111 0.2592176
-0.00570765 0.11535090 -0.49078551
-0.02314673 0.00809449 0.14854437
-0.04415719 0.00536420 -0.01560675
-0.00576494 0.10280575 -0.50216986
-0.04011019 -0.03017573 -0.26840912
-0.00146131 0.01583892 0.10759878
0.04969895 -0.01382136 -0.09655159
0.0922284 0.00809429 -0.41253458
0.00115623 -0.01666453 0.06095836
-0.13391485 0.00792369 -0.44525542
-0.00256757 -0.05637293 0.05772891
-0.01628508 0.03179503 -0.00019467
0.04558401 -0.01066818 0.04273046
0.19505111 -0.01855773 -0.16359984
-0.00708054 0.09509442 -0.37100958
-0.27844616 -0.01287799 -0.26143638
0.00385904 -0.03677693 0.19589135
-0.15543259 -0.01725164 -0.16714277
-0.21351717 -0.01235034 -0.18974748
0.07097795 0.00830343 -0.37663831
0.06411655 0.00866680 -0.31375015
0.15561062 -0.01844515 -0.09955904
0.02340284 -0.02063484 0.25912136
-0.01967232 -0.05232193 0.02979221
0.03753776 -0.03376436 0.12162737
-0.15719424 -0.01656588 -0.07664002
0.03895905 -0.00585527 -0.14171555
0.02429569 -0.01841537 0.23116344
0.01087562 0.02880266 0.09366741
0.02672732 -0.02744967 0.2571457
0.01727082 -0.01741166 0.08201762
-0.2828008 -0.01349318 -0.24128939
-0.02551063 0.00988039 0.25935819
-0.01367866 0.00477311 -0.30978095
0.03422478 -0.01281505 -0.03826794
-0.02005866 -0.01757539 -0.29228649
-0.03745292 -0.03889199 0.04450119
-0.00319105 0.03828149 -0.37652887
-0.00663666 0.04045783 -0.27981568
0.00122071 -0.03325708 -0.38648758
0.00151736 0.00498261 -0.27331505
0.00265306 0.00974736 0.1433286
-0.18330671 -0.01383968 -0.10494968
-0.03659138 -0.03732421 -0.2020011
0.01749288 0.02660477 0.07985936
-0.00486923 -0.03580715 0.15521084
0.15603649 -0.01250700 -0.1441471
0.01330843 0.01822058 0.24803864
-0.00469423 0.01129388 -0.38815029
-0.01930217 -0.05215026 0.11367604
-0.00607492 0.02768765 -0.16563665
-0.0031629 0.02704209 0.0375985
-0.04083252 0.00487793 -0.29201201
0.03697349 0.00090843 -0.2603681
0.04199909 -0.02317848 0.13070592
-0.00323908 0.10546030 -0.38775363
0.03261217 0.01145569 -0.21872491
-0.1707593 -0.01644805 -0.20230731
-0.03088305 -0.01509788 0.10679784
-0.00240015 0.01663841 0.24202305
0.06854296 -0.01172931 -0.02525702
0.00124082 -0.03295190 -0.31581237
0.00926008 0.00900360 -0.25605111
0.02220158 -0.04772029 -0.07184857
-0.02727513 0.02462446 0.03504435
0.02116384 0.00160549 0.24560547
-0.00721252 0.11235668 -0.39813757
-0.02294696 -0.02553051 0.15734961
-0.00249528 -0.01780320 0.14700341
-0.00905454 0.13099502 -0.45397828
-0.09941268 -0.01446974 -0.15021691
0.02262578 -0.02770063 0.19920428
-0.00627994 0.01579277 -0.37978286
-0.01059548 0.02680708 -0.26469834
0.01923989 -0.04020569 0.23003538
-0.02405429 0.03002554 -0.04350384
-0.2569655 -0.01335040 -0.2537079
0.28591922 -0.01647531 -0.32600676
-0.00537913 0.02129616 -0.42216868
0.02120107 -0.02467828 0.23065304
0.00446355 0.04040075 0.05474955
-0.00188424 -0.00893470 0.14345866
0.02176385 -0.04325141 -0.22119876
-0.02711938 -0.00709174 0.21543394
-0.11745115 -0.01203285 -0.08138268
-0.28641704 -0.01789141 -0.28812384
-0.00517725 0.03693336 0.03784778
-0.0505376 0.00484706 -0.29749421
-0.13513184 -0.01784473 -0.09144839
0.02589798 -0.04432633 -0.07891836
-0.0225101 -0.04241083 -0.2826969
-0.03312937 -0.04388273 0.01258786
-0.00741481 0.07548533 -0.43842173
-0.02643152 0.02307114 0.11615705
-0.03157718 -0.01096479 0.20705541
-0.02584464 0.00882529 -0.28746549
0.03130949 0.01482231 0.17322297
-0.02404979 0.01850426 -0.3296948
0.03999214 -0.01176974 0.00092279
0.03841475 -0.00380999 -0.17514341
0.25846071 -0.01224483 -0.23300774
-0.00083562 0.00327271 0.19800026
-0.00560034 0.09407542 -0.46856795
0.04927268 0.00858695 -0.32782439
0.03974497 -0.01350469 -0.09689736
-0.00347794 0.04708832 -0.43489604
-0.13983759 -0.01837947 -0.06453891
0.02150533 0.02411249 0.16637223
0.02448739 -0.04655581 -0.04052196
0.03758206 0.00996042 -0.03543435
0.07329773 -0.01490369 -0.14330982
0.04207715 -0.00532372 0.04771127
-0.04439674 -0.02449621 0.11133251
-0.01334381 0.01575745 0.12971809
-0.01333404 0.02788780 0.1679148
0.03286701 -0.01589573 -0.04836369
0.03620195 -0.01492049 -0.10636771
0.00638701 -0.03055369 -0.31827163
0.02494529 -0.00820439 0.17839415
-0.00673608 0.02347839 -0.29965844
-0.03008627 -0.04429719 -0.18724223
0.12162113 -0.01444361 -0.17243999
-0.01714289 -0.02403072 -0.41511744
0.02865028 0.00792096 0.23842179
-0.03441548 -0.03290493 0.21223458
-0.0140154 0.03065264 0.03740549
-0.04586497 -0.01865249 0.12848341
0.00126652 0.00917212 -0.22695129
0.03939952 -0.00854190 -0.13658742
-0.00354322 0.03923880 -0.44797039
-0.07600788 -0.01701392 -0.04021764
0.02402189 -0.00400720 0.20466226
-0.0057226 0.10233720 -0.4935647
0.02889662 -0.03960146 -0.14675654
0.01891775 -0.03469005 0.25072873
-0.0038093 0.11857149 -0.5035696
-0.04181758 0.00948114 0.02181496
-0.00270037 0.04839774 -0.27724254
-0.01754534 -0.03465076 -0.34686676
-0.03311747 -0.04397182 -0.02681112
0.02868388 -0.01461777 -0.29444788
0.03588665 0.01118883 0.06272202
-0.0382746 0.00489436 -0.28913899
-0.04229253 0.01059031 -0.04663373
-0.07270016 -0.01282153 -0.07069555
-0.23675165 -0.01515535 -0.17098713
-0.20401838 -0.01499169 -0.24417462
0.02785275 0.02080765 0.0442178
0.02507058 0.00427735 -0.29546648
-0.00944952 0.03484936 -0.1202831
-0.02104343 0.02484349 0.17276221
0.01660145 -0.02742011 -0.29524184
-0.03731488 0.00418034 0.21952853
0.09061141 -0.01198579 -0.05783283
-0.00201716 0.03446893 -0.13837501
-0.01569165 0.03038201 0.03274215
0.02361406 0.02415814 0.03184952
-0.06942652 0.00818341 -0.39935818
-0.02453336 -0.01878255 -0.29508856
0.00832338 -0.02318917 0.13727373
-0.04692277 -0.01428231 0.05957011
-0.00547895 0.02830750 -0.44252964
-0.01004884 -0.03275288 -0.42365128
0.18302617 -0.01840559 -0.15200939
0.00852765 0.01948804 0.18435286
-0.00765052 0.02382743 0.04440806
-0.11848494 0.00832467 -0.37554626
0.02651586 -0.01129383 0.03451748
0.19575759 -0.01878225 -0.14976256
-0.18625442 -0.01841966 -0.14523098
0.02318214 -0.02181965 0.14828058
-0.0117386 0.00480457 0.14342789
-0.010928 0.01373735 0.19515552
-0.0948972 0.00422636 -0.40568535
0.06640504 0.00870395 -0.30727224
-0.09678371 -0.01689713 -0.08525234
-0.03901678 -0.00525644 0.11840415
0.03696977 0.00800285 -0.26030351
0.02983315 -0.00620590 0.22942264
0.00430416 -0.03369285 -0.35830956
-0.007461 0.11677652 -0.44865546
-0.04394712 0.00187547 0.08051953
-0.00202628 0.03313691 -0.14016449
-0.00380046 0.01280599 -0.36746559
-0.00594218 0.02154381 -0.33538319
0.02586359 -0.01620011 -0.01515897
-0.01845001 0.01527628 0.25597202
0.08887754 0.00848050 -0.34569482
0.00693467 -0.03018372 -0.34356104
-0.03162718 0.01630728 -0.29899746
0.07660005 0.00859731 -0.32561777
-0.11994776 0.00413279 -0.42225046
0.20226291 -0.01289190 -0.20529106
0.01599831 0.03106405 -0.09197179
-0.00083277 0.01144086 0.22153063
-0.10104831 -0.01650117 -0.11911201
-0.01714888 -0.03142345 0.15250645
-0.00308805 0.06471659 -0.35622151
0.03028724 -0.04219489 2.555e-05
-0.04192185 0.00859899 -0.18215331
-0.07580217 -0.01450773 -0.13211816
0.03439798 -0.02600565 -0.27101181
0.0353485 -0.01093094 0.23568291
-0.25574836 -0.01605069 -0.29683
0.00547463 0.01939848 0.18261164
-0.15756417 -0.01176750 -0.08111127
-0.00571305 0.02672892 -0.27373454
-0.06051204 0.00844357 -0.35413951
0.10985434 -0.01307329 -0.12326802
0.01936344 -0.01440215 -0.39560225
-0.00332821 0.12081749 -0.40615116
0.01016738 -0.01030401 -0.42286718
-0.28360508 -0.01322407 -0.27246281
-0.17494824 -0.01244134 -0.15551706
-0.02825156 -0.00620655 0.15252619
-0.10546596 0.00829224 -0.38098778
0.00480358 -0.03544869 0.15738616
0.01991215 -0.02634338 0.17038355
-0.0307882 -0.04547531 0.11167002
0.01516772 0.00900363 -0.25595932
-0.02408798 -0.05028104 -0.10091575
-0.00197215 0.03248548 -0.1292072
0.0696913 0.00424906 -0.39945511
0.02572493 0.02298639 -0.13768234
0.03059531 -0.04205977 0.01360381
-0.01801922 0.01338882 0.23039567
-0.02557615 0.03198863 0.08196965
-0.01022651 0.01414873 0.20429564
0.03822283 -0.02118780 -0.11741591
-0.00244642 -0.00425221 0.19623652
-0.04904338 -0.01683854 -0.00339494
-0.00523346 0.10544572 -0.39447993
0.02706672 0.01304204 -0.3141847
0.00079157 -0.05591771 -0.06135974
-0.09167587 -0.01621958 -0.12090947
-0.19185884 -0.01334421 -0.20159217
0.02610037 -0.04605279 0.03665223
0.11653013 -0.01728885 -0.10647572
0.0346793 -0.03127541 -0.11754121
-0.00204402 0.02955224 -0.14376363
-0.04539712 -0.00093197 -0.20482497
0.02023317 -0.02451627 0.15022133
-0.02943682 0.00507153 -0.25832052
0.02322261 0.02643793 -0.07300801
-0.00715061 -0.00040335 -0.29024363
0.03590117 0.01016131 0.1550389
0.03508571 -0.02387063 0.2189325
-0.04361132 0.00411449 -0.12106568
-0.00262163 0.05110179 -0.26131761
-0.07527491 -0.01620087 -0.092687
0.00375448 0.03335679 -0.16227537
-0.04599967 -0.01012025 0.14693274
-0.03788032 0.01464636 -0.19526356
0.07845377 0.00822947 -0.38932725
-0.00342558 0.00928975 -0.42342908
-0.0177775 -0.05290993 -0.11906804
0.01336526 0.01880240 0.07654369
-0.03901056 -0.02485746 0.14966946
0.12103054 -0.01801106 -0.0660276
-0.00238818 -0.04320350 0.21260495
-0.00095846 -0.03616356 0.21269493
-0.14558107 -0.01744922 -0.13637379
0.20259188 -0.01442200 -0.13447879
0.02517271 -0.01374320 0.26931314
-0.04083495 -0.03177916 -0.15904511
0.04239523 -0.01040718 -0.03285603
-0.03755202 0.01167696 0.16048192
-0.15014475 -0.01503718 -0.20205625
0.04753604 -0.01685997 -0.01007903
0.09977502 -0.01123518 -0.01300423
-0.28360464 -0.01364531 -0.28086864
-0.07054705 0.00427643 -0.39671695
-0.00722729 0.10146881 -0.40092528
0.20240135 -0.01865335 -0.17050783
-0.26924577 -0.01377060 -0.27190111
-0.02413921 0.01470528 -0.36753393
-0.00326862 -0.01345520 -0.02709424
-0.04102325 -0.03330258 0.11051022
-0.03277686 0.02220223 -0.00759432
0.03711751 -0.00344813 -0.3615865
0.02750583 0.00219102 0.13545005
-0.11217848 0.00828605 -0.38215275
-0.0360441 -0.00134087 0.13478681
-0.13229757 -0.01299211 -0.13679852
-0.18758713 -0.01529552 -0.23711511
0.01337912 -0.04660915 -0.23917584
-0.03071323 0.01500112 0.21404519
-0.00208457 0.12269587 -0.4721223
0.00153037 -0.00757361 0.15145511
0.08387497 -0.01736282 -0.04220728
0.27748968 -0.01755713 -0.24006341
0.00519823 -0.05415760 -0.14868272
-0.00104967 0.02643826 0.19147912
-0.00874543 0.01680323 0.26557204
-0.00291851 0.07416585 -0.32203417
-0.00698117 0.02394354 0.22713158
-0.00494702 0.05913280 -0.33535144
-0.00760232 0.10980193 -0.47720571
0.00976007 0.01054789 0.26706418
0.02185427 0.01830893 0.21881017
-0.00348073 0.10474484 -0.43664438
-0.01618926 0.00872999 -0.30386899
-0.0051262 0.07076253 -0.37191286
0.00768285 -0.01297871 -0.01933
-0.00247935 -0.00231744 0.16223629
-0.146034 -0.01278321 -0.14148771
-0.08346509 -0.01352994 -0.1114261
-0.27964597 -0.01923209 -0.25234602
0.02866128 0.01875264 0.13688142
0.04743413 -0.01644471 -0.03786274
0.02035852 -0.01055106 0.15241761
0.01162002 0.01508903 0.14130026
-0.01640217 -0.03607259 -0.33963299
0.11149636 -0.01674575 -0.13389885
0.1295994 -0.01189639 -0.09210432
0.13568671 -0.01715979 -0.14994221
-0.01960323 0.02789102 -0.21730194
0.04547347 -0.01623103 -0.04868831
0.04264714 -0.01688862 0.00071906
0.01595598 -0.03315387 0.19996236
-0.00547576 0.08805645 -0.44317268
-0.1374622 -0.01755407 -0.11485254
-0.02632261 0.03781565 0.11830348
-0.00639849 -0.05530864 0.1138949
-0.02427822 0.01801842 -0.33587531
0.01604612 0.03148782 -0.02871007
0.03142629 0.00633596 0.11283572
0.16603092 -0.01481654 -0.21520774
-0.00290665 0.03910621 -0.31883362
0.2711253 -0.01942717 -0.24318267
0.03902125 -0.01605043 -0.04911407
0.10380299 0.00818860 -0.39606236
0.19388391 -0.01225648 -0.17037716
0.17205352 -0.01726458 -0.19319797
0.08360052 -0.01783548 -0.00985099
-0.03640213 0.00232177 0.18258792
0.11381096 -0.01309652 -0.12813427
-0.05838186 -0.01746491 0.02125494
-0.00303978 0.05210990 -0.34615099
-0.04709181 0.00872987 -0.30432593
0.02134282 0.00856350 -0.33224776
-0.00556016 0.11460996 -0.46088603
-0.04052885 -0.01461171 0.22019722
0.01689283 0.02735646 0.0573106
-0.00521555 0.09542836 -0.39061553
-0.00492562 0.04724269 -0.33073
-0.02144798 0.00389788 0.22313364
-0.09641385 -0.01761542 -0.03708632
0.0355397 0.00474173 -0.31454596
0.03163812 -0.01373051 -0.07500575
0.00959919 0.00956194 -0.38158894
0.0382706 0.00634996 0.09277336
-0.00383354 -0.05485435 -0.16567559
0.01701879 -0.02938296 0.24455769
-0.04265561 0.00670398 -0.14427962
-0.00509834 -0.05590183 -0.06226049
-0.00554821 0.04530390 -0.45694923
0.002691 0.01238880 0.24603638
0.04227387 -0.01128684 0.01940945
-0.02566245 -0.02832848 0.21606562
-0.00452671 0.01815450 -0.2943119
-0.11143745 0.00823212 -0.39149188
0.00718385 -0.02990419 -0.29893403
-0.12091165 -0.01667885 -0.14303486
0.0166172 0.00445308 -0.39038224
-0.0022726 0.03724043 -0.19022378
-0.19106122 -0.01548585 -0.2436017
0.00399027 -0.01071532 -0.29525992
0.02832393 -0.02069686 0.22579526
-0.02335331 0.02187192 0.20739529
-0.17040553 -0.01848384 -0.11252746
-0.00995414 0.02585935 0.19836255
-0.02357031 -0.02467146 0.27240677
-0.02952561 -0.00664931 0.18188093
-0.13583312 0.00416344 -0.41710846
0.09299116 -0.01794358 -0.01962366
-0.03356868 -0.04332076 0.09522926
-0.12899698 -0.01308460 -0.13746901
0.27416558 -0.01402254 -0.28512413
-0.25162638 -0.01699150 -0.27235974
-0.00239782 -0.01335033 0.24724485
-0.00346842 0.10632164 -0.43419076
-0.03870386 0.01429389 -0.16340291
-0.0376012 -0.03841595 0.00831938
0.26766901 -0.01699305 -0.29619319
0.03253857 -0.01759554 -0.36892339
-0.03838844 -0.02771141 0.14818377
-0.00550238 0.10639139 -0.4489741
0.12155324 -0.01116029 -0.05264532
-0.00683993 0.03212335 -0.32091393
-0.00236251 0.03864187 -0.20847101
-0.04763826 0.00872062 -0.30593648
-0.15544233 -0.01315185 -0.16644233
-0.02989531 -0.03638750 -0.30288404
-0.01222912 0.02346195 0.20313093
0.00381574 0.03372459 0.03566474
0.2701253 -0.01910727 -0.25260662
0.14501593 -0.01738448 -0.15175267
-0.01525482 0.00907211 0.19610908
-0.00216376 0.03911338 -0.16824031
-0.22285575 -0.01277181 -0.16421307
0.03359293 -0.03482169 -0.08343085
-0.12062062 -0.01426203 -0.16301084
0.07242428 -0.01372690 -0.11471911
-0.04677348 -0.01374595 -0.08436982
0.01349302 -0.01999916 -0.35623315
-0.086121 0.00442722 -0.37073986
-0.07880275 -0.01779598 0.00647731
0.05933316 -0.01479936 -0.13012152
0.01293637 0.01130928 0.15661246
0.04183481 -0.00208411 0.14072396
0.00049466 -0.01003513 0.11395811
0.01134587 0.01255898 0.19407324
-0.11312467 0.00827355 -0.38433421
0.03281939 -0.02843463 -0.27625609
0.01145609 -0.01249586 -0.00232338
-0.22062275 -0.01202108 -0.18277515
-0.18684706 -0.01750952 -0.19567122
0.03431045 -0.01390922 -0.0852823
0.04665932 0.00829606 -0.37823047
-0.00243758 0.03905979 -0.2237119
-0.18759714 -0.01389242 -0.20912838
0.01898286 0.03012174 -0.04959324
-0.25892555 -0.01626950 -0.29532143
0.01883462 0.02312033 -0.24041382
-0.22936126 -0.01532662 -0.27109876
0.26293653 -0.01283193 -0.2522671
-0.00651124 -0.05602721 0.07332986
0.23526252 -0.01714552 -0.25996808
-0.00737592 0.01876651 -0.36280289
-0.02345381 -0.04296445 -0.27263818
-0.00190474 -0.05615613 0.09079127
-0.14426258 -0.01252717 -0.12886882
0.01874639 -0.05002289 -0.07697475
0.03235586 0.01327464 0.18413601
0.03249666 0.01637362 0.01794999
0.01529382 -0.05196169 0.14082252
0.02531633 0.00237426 0.20862853
0.00227133 0.02981589 0.11594076
-0.03179681 0.01758160 -0.27648086
-0.12630812 0.00812686 -0.40994163
0.02501049 -0.04742278 0.08018779
-0.22836906 -0.01608459 -0.26841025
0.0218529 0.00057942 0.27077869
0.0141459 0.00883669 -0.28491355
-0.03824589 0.01717003 -0.03150774
-0.03054566 0.00920017 -0.29522063
-0.1927371 -0.01261804 -0.18059381
-0.04679856 -0.00640106 -0.34563285
0.03799663 -0.01185212 0.12168152
-0.04318168 -0.02399748 -0.28639314
-0.00299064 0.08275906 -0.33685356
-0.00770892 0.01117627 0.15891251
0.0147004 -0.02740542 0.14797107
0.05478935 0.00815566 -0.40239577
0.17271054 -0.01145773 -0.11541832
-0.13242033 -0.01825067 -0.05973658
0.03208099 -0.01189902 0.25727268
-0.26295894 -0.01254588 -0.24243818
0.08538948 0.00416081 -0.41452055
-0.04345067 -0.02542314 -0.12587081
0.01057143 -0.05083196 -0.19680688
0.2500724 -0.01923601 -0.2178325
0.01347389 0.02438555 0.0562503
-0.03524628 -0.02109509 0.24461741
-0.00493914 0.08228482 -0.33428671
