# .PCD v0.7 - Point Cloud Data file format
VERSION 0.7
FIELDS x y z
SIZE 4 4 4
TYPE F F F
COUNT 1 1 1
WIDTH 1393
HEIGHT 1
VIEWPOINT 0 0 0 1 0 0 0
POINTS 1393
DATA ascii
0.20312784 -0.34620832 0.01120227
0.16199589 0.08862153 -0.1543784
-0.09108859 -0.38015038 -0.14583987
0.16724122 -0.31119885 0.1250333
-0.01467338 -0.34756100 -0.10414128
0.16993218 -0.36946858 0.04833762
-0.1765315 0.05306162 -0.04891371
-0.15740598 0.16379789 0.03920037
0.01026657 -0.34756100 -0.02020751
0.01590536 -0.35995200 -0.2070575
0.19475224 -0.30792206 -0.07052993
-0.04256858 0.13098549 0.21585235
0.0732753 -0.35499600 0.15929662
-0.16739157 0.02739314 -0.06587258
0.06346754 -0.34260499 0.17773321
-0.22204439 0.07140090 -0.01053202
-0.05342774 -0.07794295 0.20554543
-0.00673135 -0.34260499 -0.13764779
0.1695467 -0.33046948 -0.12635304
0.1902517 -0.06085583 -0.103748
-0.03372034 -0.34756100 0.0055689
-0.20260347 -0.19678562 -0.04637736
-0.01017805 -0.28392336 0.20711221
0.10000923 0.09762189 -0.15952922
0.14283807 -0.27019241 0.04919359
0.0588318 -0.34553131 0.19033271
-0.12529214 -0.26745705 -0.07643822
0.24974187 0.18761347 -0.00248181
0.17159544 -0.37028361 -0.03385468
0.00584716 0.21179295 -0.2644589
0.21392968 -0.06680911 -0.03989682
0.20737894 -0.32556348 -0.02722766
-0.04518888 0.17372100 0.0051562
-0.09242234 -0.36680718 0.14937998
0.00280934 0.17520200 -0.04547798
0.11576192 0.15550562 0.14539719
0.1564033 -0.40293057 -0.06553123
0.08197226 -0.36794133 0.15604567
-0.15739534 -0.13689333 0.04450494
0.15505644 0.16742770 0.17551108
-0.1063452 -0.34260499 -0.02325579
0.16415646 -0.35872139 0.12983178
0.22007467 0.12307866 -0.00408305
0.17278071 -0.31701741 -0.11223894
-0.0625771 -0.22096957 -0.19640731
0.15277716 -0.34756100 0.02676157
-0.0943514 -0.06654029 0.19081982
-0.20963422 -0.30908681 0.01111557
-0.09995025 0.10962124 0.20381952
0.12317693 0.08900689 -0.14338788
-0.1961245 -0.31031346 0.06102245
-0.19461383 0.12266740 -0.1006382
-0.16844777 0.15499165 -0.07300099
0.02139441 -0.34260499 -0.1470524
0.1976274 -0.32848227 0.05272074
0.18368529 -0.19281124 -0.10149731
-0.11253024 -0.01753230 -0.13362943
-0.20093684 0.15066511 0.02635769
0.07560736 -0.32026642 -0.19051115
-0.05868531 -0.30182994 0.19730923
0.15822935 0.01365933 -0.14565349
-0.19124394 -0.10440099 -0.09295779
-0.06467364 -0.31578884 0.19847082
-0.11560575 0.17080111 -0.02038979
0.016191 -0.26299731 0.20566066
0.15003952 0.09662753 0.12139468
0.21966504 0.12066750 0.00224135
-0.15800896 -0.34260499 -0.0641331
-0.05719256 0.11836017 -0.20777234
-0.02492 -0.29017121 0.14726285
-0.13452313 0.15666207 -0.11709645
-0.13451184 -0.09500694 0.10303663
-0.0178085 0.14430603 -0.21442101
-0.10304683 0.10347300 -0.12972784
0.20657106 -0.14350252 0.05623912
0.07835651 -0.30423229 0.12531879
-0.11101929 0.15408954 -0.19446324
0.267485 0.20488505 -0.06265977
0.1476981 -0.25803154 -0.03543422
-0.07651456 -0.37683044 0.15198568
-0.05330008 0.13916726 -0.20829184
-0.11166739 -0.13577643 0.18242652
-0.21168546 0.13909288 -0.06394342
-0.02730512 -0.37092313 0.16855641
-0.2126568 -0.01430358 -0.00376788
-0.14269655 -0.39013330 0.09143533
0.1405183 -0.16484420 -0.07876446
-0.06454026 0.20490735 0.26909239
-0.23675422 0.18341893 -0.05746095
0.07270211 0.02007152 -0.20685699
0.04016195 -0.25053523 0.1481108
0.03239118 0.03214871 -0.17860466
0.20575427 -0.12844068 0.04311664
0.15953462 -0.14092742 -0.04349661
0.12387224 0.10347300 0.11295198
-0.05892252 -0.09368989 0.20836966
-0.01688217 0.10347300 0.00084145
-0.11611276 -0.26490177 -0.09110827
-0.05704038 0.00947364 0.2092493
0.15417213 -0.35995200 -0.14150898
0.01924189 -0.31569512 0.14634229
-0.14389991 0.15830361 0.10792509
0.1053164 -0.14323876 -0.18299365
0.03659135 -0.32817198 -0.20100644
-0.05775456 -0.34756100 0.17331322
0.19926465 -0.32490063 0.01261913
-0.07459267 0.16887602 -0.09458054
0.14536394 0.06910290 0.16674849
0.02657798 0.10347300 -0.0750113
0.12438227 0.05225052 -0.18131981
-0.14385162 -0.12534627 -0.15425952
-0.03265677 -0.06473079 -0.16698882
-0.11274848 -0.09067771 -0.18030989
0.05036673 -0.01742682 0.21544596
0.05149773 -0.09656106 -0.20673319
0.17338015 -0.38643780 0.02671398
-0.20377803 -0.06915429 -0.06745132
-0.14302804 -0.30582447 -0.14546978
0.12572404 0.10774231 -0.18617151
0.09733843 -0.34756100 0.16289528
-0.09042747 0.10347300 0.05259055
-0.18078255 0.10347300 0.02737136
-0.12884904 0.16600078 -0.07226782
-0.03580181 -0.37012993 0.16721166
0.110741 0.11315517 0.18970384
0.20959806 -0.05368415 -0.03950155
0.20112133 0.05849099 -0.09609478
0.08635419 0.15783483 -0.15245946
0.01545501 -0.00379658 -0.21243022
-0.21635224 0.10748330 -0.03606501
0.2062757 -0.33026528 -0.04867499
-0.19805285 -0.12838301 -0.05782943
-0.12941567 -0.24636509 -0.07453353
-0.18849001 -0.07272600 -0.09107093
0.21644346 -0.08827234 -0.00180737
0.18666267 0.09209629 -0.12208578
-0.14207424 -0.25057159 -0.13987599
0.05041803 0.10347300 0.0094453
0.18635537 -0.21629603 0.09862815
0.17158536 -0.37596419 -0.03391886
0.13979427 -0.19718071 -0.15571517
-0.09861006 -0.22120785 -0.11544165
-0.00367633 -0.34756100 -0.00113087
-0.17380554 -0.31174697 -0.11560784
-0.1713714 -0.31762009 0.10954256
0.07459965 0.13034958 0.2076687
0.1694694 -0.33329348 0.13064098
-0.08151114 -0.37420398 0.14944188
0.16149437 -0.00868932 0.15195647
0.06214224 -0.19015672 0.19792151
-0.00388689 0.17284455 0.10240281
-0.02028248 0.17027911 0.1236468
-0.22141457 0.05920071 0.00615044
-0.11838842 -0.05181496 0.18355133
0.05983219 -0.12876279 -0.19764051
-0.10580742 0.06360478 -0.19351456
-0.21487022 0.12044823 -0.00703078
0.04974712 0.12024456 0.21354413
-0.21893306 0.11587827 -0.04779915
-0.07228944 0.08359011 0.1748454
0.04135194 -0.33886984 -0.20032007
0.0560498 -0.37552323 0.16375004
0.11110188 0.20103642 0.24959491
-0.11428371 0.16770720 -0.08918337
-0.04001253 -0.31110694 0.20431725
-0.12823134 -0.24536720 0.08151879
-0.2080562 0.17982070 -0.12163285
0.13974781 -0.12469729 -0.1573644
-0.11014872 0.16789617 0.09630689
-0.08530095 0.16736427 -0.12081498
-0.07203083 -0.33436085 0.19511148
0.06538138 0.16839641 0.12750227
0.02753261 -0.34260499 -0.05741952
0.06062092 -0.39670273 -0.15729265
-0.20981023 0.13089358 -0.04587451
-0.01871976 -0.34260499 0.03301402
-0.15031364 -0.23242911 0.13714111
-0.1640269 -0.08018201 0.04295046
-0.15999274 -0.05736072 -0.05978458
0.00289714 0.07396941 0.19054771
0.16751661 -0.11343255 -0.00484405
0.1481718 -0.22764795 0.04739223
0.18878561 0.08942165 -0.01638098
-0.23380579 0.20482153 -0.1156837
0.15727441 -0.16930694 0.03717907
-0.09955204 0.21041221 0.25438851
-0.14293472 0.10401710 0.15491036
-0.13676038 -0.39129959 0.10288241
0.1913327 -0.34679460 -0.09243247
0.21744982 0.02736353 0.00630645
0.10392837 -0.22025506 0.11823211
-0.15045743 -0.16245463 -0.13792591
-0.00393942 0.16469856 -0.23348027
0.07399089 -0.34260499 0.03170373
-0.00505353 -0.01837094 -0.17458201
0.14135358 0.15545054 -0.11760485
0.10045067 0.16900239 -0.09017973
0.05780966 0.06550895 -0.20856506
-0.13919847 0.05827718 -0.11880594
0.10396699 -0.32260510 0.18712931
0.14989283 -0.20207403 -0.04944766
-0.0290334 -0.34260499 0.02319049
-0.20490204 0.14486243 -0.06621183
0.1334803 -0.34756100 -0.09407444
-0.14236048 -0.09617462 0.1620605
-0.08271254 0.08159733 -0.1675601
-0.02659764 0.17372100 -0.04107512
-0.15282621 0.16326764 0.06041847
0.18127287 0.12031002 -0.12413718
-0.17318652 0.12215243 0.13040083
-0.05963848 -0.32429874 0.195853
0.15432675 -0.04566375 0.08458925
-0.17534173 -0.32718206 0.11739612
-0.181943 0.20501281 -0.18464878
-0.0414278 -0.32531543 -0.2048846
0.19012315 0.15506488 -0.0211688
-0.16011992 0.14331599 -0.15277631
-0.03439224 0.13851525 -0.21396231
-0.16568809 -0.36633188 0.02729109
0.00930201 -0.34756100 0.12013896
-0.16498558 0.05454153 -0.14318843
0.12484758 0.06234186 0.18630656
-0.14626864 -0.31541584 -0.14265995
-0.12694792 0.02034441 -0.12813702
-0.21494777 0.03790201 -0.04046475
-0.22551283 0.20639899 -0.12785818
-0.13244779 0.16896974 0.02488727
0.06342387 -0.04752586 0.2052011
0.17948688 -0.26525087 -0.09136434
0.10091007 -0.18752327 0.12525288
-0.11063605 0.11087662 -0.17571504
-0.016031 -0.35588917 -0.17113974
0.08400908 -0.34260499 0.14308123
-0.17134869 0.03147233 -0.0563515
-0.01289707 0.17372100 -0.05472957
-0.11887439 0.10161612 0.17827586
-0.10922623 0.15151268 -0.16035349
0.11075337 -0.29150331 0.10181022
-0.24192271 0.19546451 -0.07308048
0.22558296 0.12539321 -0.012779
0.14655686 0.10347300 -0.07557266
-0.21816223 0.15587906 -0.0552412
-0.04056454 0.00089679 0.21585913
0.10337357 -0.06561364 0.14107658
-0.13858248 -0.29240356 -0.14031374
-0.10888646 -0.14252562 -0.11879425
-0.06775991 -0.40746216 -0.15778387
-0.11618196 -0.30602481 0.08935973
-0.26691132 0.20089834 0.03823714
0.00424553 -0.09583900 -0.16642983
0.03823193 -0.34260499 -0.0441954
0.18595606 -0.01937704 -0.11547107
0.20926283 -0.06639066 0.04241442
-0.19767169 -0.13802451 -0.05732881
-0.20954987 0.05827996 -0.05215407
0.11499264 -0.04068870 0.13498587
0.02189384 -0.20619661 0.1577401
-0.07031147 0.16951338 -0.10711806
0.17858625 -0.33607947 0.1073856
0.06530057 -0.15168196 0.15219618
0.16725256 0.11166999 0.14796667
-0.23929914 0.18455718 -0.012779
0.03559171 -0.22083631 0.15310462
0.10387121 0.17093472 0.02328189
0.00642342 0.14338420 0.23087256
0.12940233 0.19627006 -0.21101136
0.15381499 -0.06472419 0.15554484
-0.018504 -0.34425224 0.07468018
0.1470107 -0.34756100 -0.07749884
0.08040847 0.20381074 -0.24115803
0.05992467 -0.23303751 -0.19204291
-0.17296616 -0.36151725 0.01273612
-0.12188371 0.15687493 0.19322906
0.01093114 0.17501952 -0.07674366
-0.04822957 -0.26574412 0.19690157
-0.21896307 0.10092257 -0.04470396
0.18290323 0.15841065 0.03740273
-0.1438159 -0.40278483 -0.08512284
-0.20472602 -0.34077864 0.02175314
0.00501778 -0.25507021 0.15286923
-0.1746213 -0.02219212 -0.01424991
0.25311397 0.20050421 0.09166208
-0.12383442 0.15987551 -0.189301
-0.09700673 0.05149028 -0.1921425
0.1444676 -0.13288093 0.15991617
0.08055832 0.10347300 0.06815316
-0.05478331 -0.34260499 0.17268895
-0.24107153 0.18773060 -0.01229303
0.14369887 -0.09318876 -0.15238365
-0.18310677 0.05502588 -0.00919351
0.11676786 0.16021751 -0.13715566
0.07050509 0.17372100 0.02606677
-0.1793666 -0.22607930 -0.09103971
0.01006393 -0.28831994 -0.14421475
-0.15239828 -0.34756100 0.02342969
0.1506713 0.16736891 0.01683542
0.10969628 -0.22569873 0.1126192
-0.11943221 0.00767485 -0.13202844
-0.00496215 0.11595849 -0.21579979
-0.0785212 -0.34756100 0.01819584
-0.05120984 -0.34107229 -0.19851775
-0.10431367 -0.34260499 0.02928158
-0.09866754 -0.02729745 -0.14222255
-0.04602613 0.09512592 0.18658836
-0.22321808 0.19963296 -0.12559253
-0.09087005 -0.38957095 0.14467717
0.07562087 -0.34260499 -0.16985453
0.05216545 -0.29449003 0.19501878
-0.11330563 -0.04248473 -0.17713066
0.03172832 0.10890132 0.22049101
0.20788709 -0.33854144 0.04738528
0.13672799 -0.25355403 -0.06377642
-0.01311375 0.11307125 -0.21495027
0.13593498 0.16909243 -0.00060018
-0.15437191 -0.34260499 -0.06898158
0.14271939 -0.34251140 0.0135175
0.20524766 -0.20900393 0.0036158
0.15666787 -0.20494645 -0.01141757
0.07901691 -0.26908962 -0.12662894
0.016191 -0.28507053 0.20495635
0.19711908 0.06038409 -0.10437118
0.04851641 -0.17868684 -0.20314276
0.12377531 -0.28093149 0.0841831
0.03203325 -0.23870871 0.15202744
0.21066062 0.08030347 0.06644205
-0.09889169 0.16305243 -0.12361826
-0.20963513 -0.34036481 0.00651133
-0.15742294 0.08766966 0.10328337
0.02089151 0.12163831 0.21767951
0.01745161 0.16807394 -0.12774343
0.03651963 0.15389501 0.02584605
-0.04067605 0.17372100 -0.03129279
0.21554208 -0.02689450 0.04601762
0.17257586 -0.29505892 0.11436342
-0.2079981 -0.10454707 -0.00201424
-0.02965895 0.17291243 0.08210431
-0.18326255 -0.11491019 -0.10569652
0.0699669 0.10968603 -0.21280736
-0.1480902 0.04708725 -0.10513792
-0.15336238 -0.26942401 -0.13156455
0.15367105 0.10347300 0.03816727
-0.18011413 0.11273368 -0.11993773
-0.10619927 0.07596609 -0.18829441
-0.15643089 0.10347300 -0.01143748
-0.13844809 -0.34260499 0.12240672
-0.16057615 -0.09421063 0.05052239
0.10841218 0.17051637 -0.0122723
0.13268395 -0.04766502 0.11678269
-0.2022931 -0.21041759 -0.04481669
-0.00265154 0.11322126 0.21899889
0.16639327 -0.38343670 0.06096275
-0.06652862 0.16153048 0.22648559
-0.18204836 0.06910975 0.03661924
0.02387945 0.10347300 0.00455317
-0.21197383 0.12833411 0.06216108
-0.06025364 -0.03379212 -0.20703373
-0.20580705 -0.04015774 0.06984336
0.18690336 0.03427789 -0.1094434
0.14786668 -0.24664300 0.03920769
0.21639785 0.14975452 0.07511342
0.14428858 -0.31236969 -0.15316134
0.0688405 -0.23599526 -0.1924449
0.07582201 0.14946796 0.19443808
-0.01917116 0.10347300 0.08375257
0.14568209 -0.28196249 -0.02973341
-0.10851308 0.01521783 -0.18906792
-0.12065459 0.00851607 0.13381216
0.01394753 -0.36639731 -0.16694102
0.04466606 0.16781433 -0.12352513
-0.20403416 -0.12351563 -0.0556521
0.21920608 0.04644573 0.04697203
0.19775039 0.09702347 0.11124168
-0.15189576 -0.39688503 0.07341685
-0.07667903 -0.31650900 0.12456696
-0.16417133 -0.39845494 -0.03274911
0.20816426 -0.15250670 0.00516605
-0.12037395 -0.10443979 0.1171612
-0.19167451 -0.21819694 -0.06371933
0.10818357 0.08036135 0.19311657
0.07196533 -0.33639648 -0.1211531
0.10607256 0.09013049 0.16027531
-0.10622671 -0.26990356 -0.17339127
0.016405 -0.34260499 0.06940238
-0.20584752 -0.08360663 -0.05684497
-0.18434981 0.10347300 -0.00112787
-0.04657585 0.17372100 0.03667359
-0.16784493 -0.05116616 0.04046757
-0.15543083 0.07046404 -0.09966191
-0.17975919 0.02728470 -0.01670455
0.14793657 -0.19866809 -0.05507427
-0.02002468 0.10347300 0.08836706
0.20715488 -0.10199509 -0.03898344
0.15332896 0.08608368 -0.10927456
0.08217227 0.13130860 -0.20138597
-0.21965072 0.11941814 -0.04582684
-0.02875739 -0.31613451 0.14406507
-0.06949308 -0.41115589 0.15556039
0.04290427 -0.04455708 -0.20667669
0.18218931 -0.05533641 0.11253692
-0.00857917 -0.15633634 -0.20455555
-0.00695556 -0.34260499 0.00336024
-0.08667492 0.15883433 -0.14765261
0.02770054 -0.34756100 -0.18606469
-0.15409965 0.11628629 0.16583257
-0.14190352 -0.27931200 -0.14496711
0.05594914 -0.38528010 0.16380129
0.06352424 -0.19920708 -0.19802462
0.1554044 0.20032096 -0.21748564
-0.12080389 0.00566857 0.18387822
-0.06310439 0.11358717 -0.21414676
0.20758912 -0.32871697 0.04839946
0.00059791 -0.34756100 0.17425615
-0.03546642 -0.34260499 -0.05054267
-0.21402999 -0.08384538 -0.0118938
0.22634244 0.20336564 -0.15234355
0.18240577 0.10347300 0.06142782
0.15604949 -0.08078794 0.15213766
0.06593146 0.20662819 0.25732033
0.07385748 -0.34602510 0.021916
0.20016431 0.12830641 -0.08780996
0.18785813 -0.04851036 -0.09924212
0.00797713 -0.34756100 -0.0916913
0.04422114 -0.16419086 0.20411116
-0.14814858 -0.34756100 -0.09307651
0.14097054 0.16709175 0.06780829
0.04112491 0.16713045 0.00169877
-0.21615567 0.11572500 -0.00067139
0.20451401 0.15042161 0.11127686
-0.13119459 -0.25453987 0.07338253
-0.10289672 -0.00963900 -0.18509797
-0.20909299 -0.01199293 0.04402429
-0.26973554 0.20422722 -0.03691268
0.0353652 -0.33300183 -0.20118321
0.15035031 0.13430914 -0.16322801
-0.1452947 0.05210326 -0.16555386
0.1402622 -0.10864382 0.1620592
-0.00357235 0.17137506 -0.23081578
-0.09976744 0.17116773 -0.00120946
0.05054891 0.14590101 0.22113056
-0.06603693 -0.34756100 0.17999925
-0.17000429 0.16263580 0.15522345
-0.14401911 0.20586691 -0.23000726
0.02718947 -0.34756100 0.17947065
0.22833305 0.13222766 0.0063938
-0.05437809 0.13904046 0.21785936
-0.21537293 0.07853921 0.0447595
-0.13065954 -0.04554767 -0.11153
-0.15275759 -0.25424243 0.1351411
0.17727021 0.11143070 0.11809087
-0.19321474 -0.24872709 0.05606474
0.14946524 -0.25411037 -0.02465641
0.00347016 -0.34260499 -0.00145647
-0.24968145 0.20432936 -0.04992544
0.20260176 -0.34753750 -0.00246292
0.22114814 0.09900356 0.00726453
0.16554607 -0.00751349 0.14528607
0.13626056 0.10260788 -0.13247555
-0.17174162 -0.35499600 0.0053307
-0.18384323 0.05905272 0.11690492
0.20085048 -0.09480461 -0.06394633
-0.18532807 0.07901716 -0.01552527
-0.10399237 0.17639584 -0.20919809
0.02393651 -0.34386814 0.14736984
0.20111333 -0.18582696 0.0489903
0.15267192 -0.33540300 0.13241253
0.14632905 -0.34756100 -0.06530067
0.04702574 -0.34260499 0.13288075
0.19098925 -0.35727764 -0.08335685
0.0975287 0.10347300 0.01221688
0.09635381 -0.26171231 0.17955534
-0.20147952 0.16016864 -0.10353661
0.19096163 -0.34260499 -0.04283462
-0.05369069 0.16946513 0.10646164
-0.14291573 -0.34756100 0.00797396
-0.05048529 0.13740514 0.22385886
-0.05207554 0.15718791 0.17790062
-0.01014835 -0.34756100 0.11052733
-0.1918591 -0.01588451 -0.09227269
-0.12698744 -0.10251367 -0.10620774
0.17991759 -0.11289963 0.12045483
0.00617664 -0.40129918 0.17727453
0.19722322 -0.03756334 0.09802488
0.16914489 0.09845683 0.08990421
0.14115691 -0.34473524 -0.13656078
0.17588266 0.09458611 0.07673886
-0.09640477 0.10347300 -0.03265163
-0.16260297 0.14484519 0.16223681
0.04857069 0.09042896 -0.2123725
0.1662652 -0.34756100 0.09295049
-0.18513938 -0.00352225 0.11812582
-0.14811344 -0.13213696 -0.06899811
-0.11773993 -0.23507985 -0.09474423
-0.12123181 0.09546086 -0.18077787
0.2014029 -0.10176521 0.06467648
-0.05523145 0.10347300 0.02082755
-0.20075676 -0.34096020 0.00813526
-0.20496539 0.05389788 -0.06838974
-0.13142669 -0.29041916 -0.06215654
0.06266032 -0.07337730 0.20916162
-0.14348588 -0.14750214 0.15016909
-0.10916183 0.02760200 0.18788119
0.14487319 -0.09456027 0.15529041
-0.21446701 0.02076184 -0.01199055
0.15191699 0.13779110 0.15744275
0.0879373 0.10347300 0.09636859
-0.17435576 -0.15009177 -0.10756472
0.01783738 0.15424003 0.19344886
0.22002861 -0.01882468 -0.0036792
0.11136575 0.12229782 0.19377919
0.11962643 0.10152416 -0.14728094
0.09361523 -0.34756100 -0.1317602
0.20458644 0.16510412 0.12148872
0.21748717 0.12316413 -0.02303221
-0.18410962 -0.08805278 -0.09707556
0.00718245 0.10347300 0.14530489
-0.20473021 -0.31522240 0.00109421
-0.0707534 0.13596454 -0.21407259
-0.10190855 0.11075634 -0.19284546
-0.12877232 0.09289554 0.13900366
0.05264604 -0.34260499 -0.03621143
-0.18259636 0.05777724 -0.02448689
-0.14537232 0.16347801 0.06369322
0.07840136 -0.34756100 -0.01551451
0.21127949 -0.10884640 -0.038774
-0.11113635 -0.34260499 0.01429472
0.04228441 0.17451457 0.07647164
-0.19866203 -0.34747065 -0.00807313
0.18317333 -0.10375461 0.10583355
0.03625292 -0.25744239 -0.1453844
0.00764829 -0.25412891 0.20865031
0.14245383 -0.19652748 0.1502653
-0.16334452 -0.32909126 0.11432963
-0.17810698 0.00843883 -0.00996613
0.2083361 -0.24531942 0.00080935
-0.10298208 -0.30606921 0.17728961
-0.13178881 -0.34260499 -0.09102878
0.16297489 0.16359377 0.02969476
-0.19109608 -0.33107552 -0.06253699
-0.013548 0.18738627 -0.24527834
-0.02007453 -0.34756100 0.16832239
0.16979763 -0.39672789 0.01809175
-0.13310801 -0.34756100 -0.13972424
-0.16369863 -0.34260499 -0.04769681
0.13747675 0.16812681 -0.04234172
-0.16141971 0.09927953 0.09911696
0.15807693 -0.15643038 -0.04264719
0.05328819 0.10347300 0.05420523
0.20050284 -0.31876858 -0.03975039
-0.09233336 0.04822346 -0.15695185
-0.00038152 0.19893641 -0.24879365
0.03287455 -0.17601741 -0.15537648
0.20406871 -0.24288316 0.04575515
0.00883563 -0.34260499 -0.05590468
-0.20964157 -0.33545239 -0.02604375
0.13352593 0.13012809 -0.16929445
0.00850476 -0.21188907 0.2108309
-0.00072572 -0.20762431 -0.20190788
0.11277596 -0.24452885 0.17682928
-0.20765539 -0.04794684 -0.03851065
0.13318697 0.16737573 -0.0345804
0.15153882 -0.24450226 -0.01664056
0.10332907 -0.20206638 0.18481433
0.06782192 -0.19824350 0.20110521
-0.05461325 0.15265275 0.22110265
0.01216665 -0.35499600 0.15005917
0.04219972 0.10347300 0.02236849
0.02299914 0.15030049 0.20455454
-0.23685979 0.18857773 -0.04791611
0.17871731 0.16875048 0.15845731
0.14621676 0.12071420 0.16259649
0.00341839 -0.07746893 -0.20862698
0.03781332 -0.33404339 0.13871416
-0.00446401 -0.21250337 0.21079918
-0.09193912 -0.21063614 -0.18517329
-0.16509296 -0.39534119 0.05833483
0.18819623 0.20293952 -0.1711174
0.1133621 0.20057727 -0.23951409
-0.0409789 0.16801874 -0.13599619
0.06051359 0.17341404 0.07504033
0.25625791 0.20699301 0.0550067
0.14567182 0.16244967 -0.09409614
-0.05278328 -0.11740488 -0.20456663
0.01811011 -0.35499600 -0.17954981
-0.1713251 -0.35419969 -0.11946997
0.12934579 0.08599473 0.13989315
-0.00138103 0.07681979 0.22077283
-0.0615936 0.14887333 -0.19754752
0.164861 0.08884057 0.09556318
-0.01795546 0.17520200 -0.05673175
0.11647898 -0.06427528 -0.17552514
0.02605041 0.16960002 -0.11114342
-0.15494912 -0.32857965 -0.14162712
0.09361712 0.07682668 -0.16104535
-0.00873877 -0.03617615 0.21493933
-0.20657195 0.14724152 -0.00362906
-0.01236958 -0.18974148 0.15946346
0.06908886 0.16624566 0.13269402
-0.14696928 -0.38890441 0.08306634
-0.19974776 0.14120297 -0.08018185
0.22951795 0.16221676 -0.0526265
0.12470148 0.16569595 0.20332801
0.17239419 -0.38333677 0.03289735
0.19452097 -0.08719286 -0.0922841
-0.23272812 0.17682053 -0.05761416
-0.05786075 0.10347300 -0.01451859
0.06623136 0.08386788 0.2114713
0.04713423 0.16677830 0.1369764
0.15982186 -0.18075257 -0.1368869
-0.030024 -0.19836873 0.15671246
0.1417023 -0.16184232 0.15354914
0.20514886 0.20056796 0.17258567
-0.16213782 -0.00129019 -0.14503023
0.09549391 -0.30161284 0.17767332
0.08549033 -0.34260499 0.11401647
0.14267158 -0.17147616 0.15889455
0.22527679 0.15255315 -0.05501124
-0.05532171 -0.03694717 0.16789634
0.0143612 -0.12692731 -0.21103641
-0.04940902 -0.12282377 -0.15498038
0.06236291 0.16664083 0.22490439
-0.11407537 -0.15504803 0.17988753
-0.0453959 -0.29952962 -0.19167438
0.14104799 -0.19021756 -0.15496979
-0.21778938 0.14035660 -0.01329936
-0.18845738 0.15692983 0.02887638
0.1524667 -0.38934966 0.08824021
-0.09595514 -0.32378180 -0.18539536
0.09556842 0.10347300 -0.12398707
-0.17418767 -0.12125967 0.12059028
-0.05472622 0.19109505 0.24687343
-0.01078848 0.19229846 0.25391263
0.03864904 -0.34260499 0.18381756
0.20726375 -0.26609193 -0.0014528
-0.06129977 -0.19251402 0.20245112
0.15132042 0.09007008 0.16933971
-0.04578419 0.00924503 0.17727798
-0.19564495 -0.16366745 -0.05977796
0.01557389 -0.34456791 -0.19980052
0.10497236 0.10024188 0.2018867
0.12256815 0.10347300 -0.12365544
-0.15835986 -0.16030413 0.0263607
-0.17039649 -0.40602470 0.02885343
-0.18794337 -0.34317462 0.03221303
0.14499762 -0.34583130 -0.12495252
0.04175113 -0.34260499 0.16185523
0.04637777 -0.09819515 -0.20287933
0.15809701 -0.20042560 -0.13717553
-0.04996207 -0.35504963 0.16992684
0.19912665 -0.23479629 0.0466372
0.03114687 0.10347300 0.12027913
0.20583782 0.17392005 -0.11221188
0.20469049 0.14804311 0.05550056
0.21228239 -0.35293751 -0.02005925
0.20452551 -0.22299269 0.01610908
0.21422303 0.20018128 -0.16103227
-0.20042685 -0.21627925 -0.05061213
0.01906514 0.15725486 0.19053993
0.0151759 -0.20527467 0.15900652
0.17889206 -0.35048094 0.1069099
0.02746392 -0.34756100 -0.18331085
-0.16735293 -0.37816395 -0.01249513
-0.013548 0.13543708 -0.22347143
-0.17419005 -0.26100051 -0.09640049
0.20976674 -0.04888207 0.0631857
0.01423306 0.17045582 0.12373959
0.13483203 0.16728490 -0.06816129
0.0541302 -0.30197988 0.20266746
0.14802849 -0.39622673 0.09693316
-0.0756239 0.16804526 0.10794308
0.0153877 -0.06194028 0.21360924
-0.09901321 -0.15849676 0.18264695
0.15271083 0.10347300 0.02469548
-0.14912627 0.09670521 0.16235808
-0.07869189 -0.34260499 0.06963497
-0.01570937 -0.35499600 0.17794071
0.18226608 0.03002162 -0.1195476
0.18064922 -0.33878534 -0.0999879
-0.01264339 0.19444835 -0.25137298
0.18020819 -0.00001559 -0.00308446
-0.06848129 0.12401316 0.21744323
0.19479067 -0.07110618 0.09662041
-0.18739474 -0.12947826 0.09387594
-0.05606862 0.17372100 -0.01974856
0.04080194 0.08319824 -0.18187729
0.21063531 -0.20078155 0.0087776
-0.01176056 -0.07039391 0.21317281
0.20648187 -0.25393078 0.01696
0.05433321 0.07986498 -0.17766242
-0.14330672 -0.13164631 -0.15434448
0.01988295 -0.33128157 0.20759129
-0.09978741 -0.24856363 -0.17838109
-0.25437445 0.20409721 -0.00555475
0.18108253 0.15471654 -0.06059707
0.17555312 -0.03835589 0.02025837
0.05844781 0.17520200 -0.04550946
0.04471135 -0.34260499 0.11781442
-0.05459034 0.01752816 0.17487225
0.10296857 -0.34260499 -0.03077771
0.08788768 0.00180365 -0.15525695
-0.23468288 0.20532306 0.14234953
-0.13646251 -0.21827365 -0.06960301
0.20519959 0.14034946 -0.09844924
-0.09895673 0.17125472 -0.00787002
-0.10517522 0.20185413 0.24323242
-0.14772912 -0.14110202 -0.14923175
0.02495558 -0.30474984 -0.20268403
-0.12705583 0.10347300 -0.0038302
-0.01990495 0.10347300 -0.17863944
-0.05963963 0.17407695 0.06583517
0.03250508 -0.41061963 0.17310774
-0.03963886 -0.34756100 0.17375525
0.15985433 0.06077973 0.09840008
0.18911327 -0.34897033 -0.08680962
0.1435566 -0.18342071 -0.0681029
-0.10917491 -0.33817825 0.17815124
0.05061884 -0.39129830 0.17024103
0.11921115 -0.34756100 -0.007164
0.00741651 -0.14145194 -0.21028657
0.20061645 -0.19551937 -0.063909
-0.01146849 -0.13177612 0.21000391
0.04527579 0.08445957 -0.21807521
0.06046017 0.20258309 -0.25393494
0.11493761 0.21147121 0.24821321
0.18777807 0.06432883 0.00170711
0.03343775 -0.38112910 0.16800406
-0.03480282 -0.33242722 0.21002271
0.01242525 -0.34260499 -0.15677494
0.19235468 0.06751540 0.11754069
0.19516286 0.06097673 -0.10782064
0.14875783 -0.21531103 -0.14542802
-0.13245339 0.13864798 -0.16782736
-0.08694222 -0.34260499 -0.10013134
0.16327748 0.15449301 0.09467142
-0.19591644 -0.33790131 0.07913589
-0.04574185 0.14977513 0.19765452
0.00542697 0.15924223 -0.17506675
-0.18244734 0.19120163 0.16483036
-0.14622737 -0.29137004 0.00057461
-0.20659336 -0.12027978 0.05092757
-0.14971019 -0.34756100 0.00993059
0.05018835 -0.15868869 0.20794418
0.04022669 -0.25544129 0.20473795
-0.15165694 -0.16519307 -0.14354512
-0.16727855 0.15804065 -0.151182
0.18198592 0.03939184 -0.02948555
0.15336221 -0.11100658 -0.14141917
0.00353972 -0.34939286 -0.13955399
0.02635028 0.05697317 0.18546664
-0.20701759 0.20052017 -0.16587669
-0.03283189 0.14476012 0.21724587
0.05318596 0.18338472 0.24219959
-0.05498392 -0.34553900 0.20216473
-0.00173875 0.15372922 -0.1925189
0.13710281 0.11962968 0.17050744
0.1652845 0.04363566 -0.08133806
-0.15029553 0.09078913 -0.11002419
-0.15002511 0.10451775 0.1628961
-0.2473318 0.20692860 0.07223876
-0.1666788 0.12578908 0.14176207
-0.04108176 -0.04645185 -0.16656663
-0.00833832 -0.41177392 -0.17237551
0.04180607 -0.34260499 -0.05759814
-0.09393052 0.13129384 -0.1948307
-0.20585954 -0.00969792 -0.06881749
0.10163087 0.13883151 0.2014533
0.11036153 -0.15855794 0.18334779
0.07062846 0.16497338 -0.13586157
0.1564751 -0.28502574 -0.13262126
0.13138293 -0.30047500 0.16262552
-0.05715791 0.01901156 0.20972755
0.09232871 0.13660490 -0.19735249
-0.12385033 0.11924324 0.17970628
0.01529628 -0.29887027 -0.19719742
0.21227519 -0.35445380 0.01633109
-0.01749503 0.16484911 -0.15958701
-0.14522152 -0.17450301 -0.06375677
0.03271485 0.16506430 -0.15406888
0.15255172 0.10347300 -0.10939522
0.20830712 0.06544218 -0.068081
0.20549635 -0.34756100 0.01822663
-0.17285068 -0.33001025 0.09577522
0.13560486 0.01963226 -0.11944474
-0.22050538 0.20807584 -0.13250579
-0.15841653 0.07339604 -0.15420411
-0.16365405 0.04954347 -0.08291977
0.26151845 0.20882884 -0.08009656
-0.14886962 -0.22923069 -0.13463863
-0.13907536 -0.16059665 0.15362379
0.15226581 -0.08200503 -0.07664674
0.06245961 0.15149620 -0.1896772
-0.16082275 -0.03904027 0.06970429
-0.02201791 0.10347300 -0.07305473
-0.13254847 -0.36224780 0.10708942
-0.195053 -0.02341710 -0.09472193
-0.01274349 0.17184613 -0.10611071
0.19392598 0.15081549 0.04598497
-0.20603235 -0.23876720 -0.00560648
0.02375168 -0.35748540 -0.16536612
-0.09903345 -0.34454982 -0.16736412
-0.11547807 0.09239011 0.15072343
0.18488084 0.15834287 -0.01994623
0.05064582 0.10347300 -0.09228264
0.18550962 0.14851053 0.10171369
0.13654223 -0.35749445 -0.15338467
0.10122716 0.03971862 0.19471011
0.15076859 -0.14980868 -0.06196197
0.08522009 -0.34756100 -0.142688
0.15998781 0.11094979 0.162197
-0.09063638 0.10347300 -0.05555408
0.2068987 -0.16555741 0.05061715
0.16760957 -0.38854698 -0.02768306
0.10888644 -0.34047462 0.18488304
-0.20439524 -0.08089027 -0.04363212
0.00406318 -0.34260499 -0.15204898
0.20965474 0.10708590 -0.02119453
0.01066318 -0.01580918 -0.17520967
-0.06635967 -0.27211239 -0.13204616
-0.16330617 -0.32055168 -0.12287666
0.14172803 -0.34756100 0.12419391
-0.14347384 0.15981283 0.10042374
0.05014069 0.10347779 0.21683037
-0.26321342 0.20398439 -0.0668994
0.00301238 -0.34260499 -0.02154033
0.0711799 -0.08648190 -0.20117588
-0.13473912 -0.31947326 0.15683829
0.15847199 0.11395428 -0.15273341
-0.19634045 0.08348256 -0.10352898
-0.15090586 -0.33303335 -0.13863914
0.09112422 -0.26016233 -0.119106
-0.02870798 0.14158923 0.21786386
-0.15169551 -0.16415633 0.14776291
-0.21273546 -0.10892164 0.00566565
0.16312978 0.02660791 0.08475023
0.14483931 -0.05564819 0.16518268
-0.10057188 -0.19484995 0.17958009
-0.15445819 0.01806260 0.09369937
0.1921293 -0.32604418 0.09539131
0.00996859 0.17148740 0.11460472
0.15566549 0.05814101 0.15564624
-0.19836911 0.08040814 0.10021206
-0.13210959 0.03531810 -0.12402578
0.161179 -0.01206688 -0.07558095
0.04556712 0.16185823 0.00344136
0.19331926 0.12086440 -0.0990272
-0.01588635 0.14984659 -0.19754918
0.08510404 -0.34260499 -0.10919118
-0.21486757 0.12072825 0.032425
-0.07772434 0.10347300 0.14519254
-0.00313637 0.10347300 -0.12333149
0.06708077 -0.20665660 0.14473095
0.1325691 -0.28543826 0.15365879
0.14561549 -0.18445544 -0.14380365
-0.20652462 -0.02696578 -0.0464411
0.22789838 0.21196879 -0.14365418
-0.03659063 -0.25482963 -0.19685008
0.2051211 -0.00164983 0.07076908
0.00982794 -0.34756100 0.200593
-0.15104413 0.01523768 -0.15733057
-0.20161977 -0.10582595 -0.04901664
0.01394364 -0.14367602 0.21435231
0.0949236 0.14441369 -0.19499635
0.15389564 -0.22412400 0.13680852
-0.05800136 0.03117199 -0.20597135
0.14521565 0.15191364 -0.12990033
0.09116773 -0.10733084 -0.13929209
0.09830664 0.08521730 -0.1956314
-0.06329796 -0.38104498 0.16420773
0.07646069 -0.34260499 -0.11113006
-0.00804886 -0.31875237 -0.2047405
-0.00767417 -0.34260499 0.11556595
-0.12608378 0.18806149 -0.2045204
-0.16661223 0.20048971 0.1910086
-0.01616077 0.10347300 0.13531082
0.1109112 -0.32698680 0.17299065
0.01950719 0.14745229 -0.20475812
-0.08876152 0.16393643 -0.12755011
-0.11444005 0.06867047 -0.1439069
0.13212028 -0.34260499 -0.11030925
0.15455294 -0.13460264 0.14970524
-0.00923888 0.17372100 -0.06781194
-0.03031082 -0.38834780 0.16808071
0.01826684 0.14860848 -0.20145438
-0.17226727 0.04417360 0.06455921
0.12785451 0.00694945 -0.12661853
0.0928804 -0.09291308 0.14502286
0.16663911 -0.04333047 0.0596774
0.00343423 -0.34260499 -0.18014403
-0.00489795 -0.04952420 0.21425022
0.17185188 0.15950276 -0.01598366
0.22288526 0.12825094 0.00800493
0.04997366 -0.32003603 0.19937868
0.16897313 0.14126430 0.15001225
-0.04017144 0.08253143 -0.1818382
-0.11214013 -0.34260499 0.13668108
-0.12282955 0.15505648 -0.14073193
0.13567816 -0.30840760 0.05963168
-0.14675896 0.02019988 0.10681685
-0.22039584 0.13600114 -0.0492727
0.11387826 -0.08008501 -0.12640647
-0.16391064 0.03995376 -0.07925005
-0.10270247 0.09550862 0.20138933
0.1625223 0.01930157 -0.14879131
-0.05065456 0.11092627 -0.20157982
-0.09772391 0.16461847 0.12885939
-0.08844374 -0.35514140 -0.147194
0.1238561 -0.38931265 0.1184106
-0.15595092 -0.19979644 -0.00976369
-0.06477265 0.00391170 -0.16453938
-0.10812968 -0.00914004 0.19201785
-0.0434225 -0.34260499 -0.0425394
0.04509418 0.13128222 -0.21177534
-0.21279939 0.10531699 -0.068584
-0.21373122 0.10829775 -0.0657009
-0.05464802 0.18286537 -0.23057095
-0.17477254 0.15479739 0.07632636
-0.09026838 -0.14558421 -0.13225163
0.11878762 0.16968840 -0.05112755
0.00613474 -0.05649750 -0.21467242
0.20303655 0.16275899 -0.1074795
-0.01661776 0.17277308 0.08642571
0.15296268 -0.34756100 0.01597376
0.21887295 -0.03923309 0.01696
0.17803888 0.10347300 -0.02137177
-0.09751758 0.17140235 0.05687609
-0.092791 -0.16553224 -0.12767624
-0.18097339 0.15728514 0.00355418
-0.01331118 0.10347300 -0.0110585
0.03582899 -0.41262073 0.16762561
0.1144195 -0.30454859 0.09361091
-0.23448473 0.20576299 0.11486513
-0.19598514 -0.28580233 -0.03538369
0.04948957 0.10347300 0.08299125
-0.16190265 0.05379532 0.08887053
-0.14148871 -0.20998584 0.06443878
0.10583211 0.05223075 0.19852826
0.10857884 -0.35543553 -0.12954745
0.21056963 0.00677737 0.07129101
-0.16783812 0.19421966 -0.18690105
0.15181383 0.01515322 0.16337718
-0.14234562 0.12538162 0.16598381
-0.13635338 -0.37448747 -0.09902449
0.12363047 0.08722298 0.18460737
0.20378708 0.14082938 -0.10349855
-0.13354871 0.16900101 0.00187709
0.11803059 0.17074998 0.20335619
0.05665035 -0.32056662 -0.1882424
0.04626195 -0.03159734 0.21578852
-0.01621451 -0.35448147 0.20941199
-0.16413577 0.16977969 0.17269329
0.0423731 0.10347300 -0.1256422
0.06516799 -0.31140936 -0.12718377
-0.11259905 -0.23630708 0.10410422
0.03830778 -0.30686649 -0.20075897
-0.01746541 0.16154509 -0.17623315
-0.00856965 -0.25023372 0.20388844
-0.06635627 0.09496553 0.21132203
0.16995955 -0.30306570 -0.11663141
0.20976495 -0.30047500 0.0271037
-0.04461914 -0.34260499 -0.02651247
0.17443502 -0.02933556 0.0306543
-0.02407707 0.13141488 0.21674803
0.01612015 0.10347300 -0.10586636
0.18202101 0.15881014 -0.03124756
-0.15902142 -0.39756987 -0.06598538
0.19461676 0.20090469 -0.18716151
-0.15346031 -0.05178658 -0.14300251
0.06549235 0.18844047 -0.23852106
0.0838911 -0.19836262 0.13650264
-0.06330782 -0.34260499 0.06200632
-0.21682895 0.05309161 -0.04312817
0.04671265 0.11830281 -0.20981813
-0.05400031 0.10115102 0.21074323
0.01601554 -0.34735447 -0.19563752
-0.08485753 -0.34260499 0.14887923
-0.02896273 0.17199723 0.09109631
-0.06378127 0.05857559 -0.21102521
0.07713394 0.13195471 -0.20083623
-0.11473671 -0.32969296 0.17416674
0.18563351 0.08256804 0.03725261
0.17681436 -0.20414223 0.10648273
0.15540495 0.08765479 0.11255403
-0.20300807 -0.12934930 -0.05831793
0.14252896 -0.10458622 0.16392031
0.02229968 -0.34260499 0.16336079
0.06668895 -0.34260499 0.04626922
0.08487658 -0.39586342 0.15456709
-0.21101536 0.05431452 -0.06506884
-0.17168241 -0.36018070 0.02078797
-0.00250635 0.21060619 -0.27137011
-0.10484562 -0.10042009 0.18274169
0.16512727 -0.38682283 -0.04348336
-0.12861708 0.04935572 0.13274652
-0.20701675 0.11317999 -0.0474732
0.20814636 0.14253503 -0.06933661
-0.152925 -0.14781898 0.05748039
-0.00776851 -0.19928844 0.20651853
0.13916019 0.16181113 -0.08760149
-0.19416429 -0.33220931 -0.06352485
-0.05343376 -0.20077365 -0.19479882
0.04915918 -0.32324279 -0.20415094
0.14418742 -0.33989667 0.13806453
-0.1220348 0.10254419 0.14639799
0.11340398 0.15603918 0.1993622
0.0145896 0.21041057 -0.26222286
0.14460172 -0.33064955 0.15707447
-0.01283736 0.10347300 -0.03279505
0.13038449 0.16359223 0.1068613
-0.01081902 -0.26746846 -0.14757179
0.15169795 -0.17154519 0.14986318
0.17864626 -0.28231483 0.1051646
-0.18065993 -0.17927790 -0.09363177
0.08788501 0.16051450 0.14676233
-0.16221105 -0.03080467 -0.14041372
0.11049757 -0.27658421 -0.09843556
0.04728138 -0.32064101 -0.19588682
0.06407067 0.10347300 -0.14938911
-0.18400514 -0.35855675 0.10391935
0.07033141 -0.07780578 0.20219024
-0.06332082 -0.02853771 -0.1612652
0.2004804 -0.30529039 -0.04252243
-0.04892136 0.10347300 -0.09481473
0.18069321 -0.22052260 -0.10381878
0.11997475 0.11670612 -0.18120481
-0.22112412 0.13573941 -0.01017999
0.10396077 0.17052836 0.06663703
-0.12938799 -0.21419663 0.08670351
0.13556062 0.15429186 0.13304168
-0.10941615 -0.12664181 0.18427073
-0.00959183 -0.29647490 -0.1443101
-0.17785507 -0.18612123 -0.10770987
-0.00842876 0.10347300 0.179246
-0.2039128 -0.18368340 0.01044063
0.0540873 -0.26184651 0.20138628
-0.13301612 0.15399900 -0.13608625
-0.11179208 -0.31255400 0.17671774
0.03865961 -0.04543746 -0.16821715
0.07849062 -0.29508513 -0.12358108
-0.03223208 0.10347300 0.04515789
0.15270129 -0.24617447 0.13639306
0.07060413 -0.09628659 -0.20162821
-0.07460388 0.19453528 -0.23362352
0.07857128 0.17157632 -0.07834521
-0.09395201 -0.02990546 0.19684689
-0.04643047 0.06703814 0.21516887
-0.09593726 0.03558825 -0.19181204
0.19994312 -0.31175793 -0.00035667
-0.13874048 -0.24795583 0.06023389
-0.06511228 0.14035487 -0.21096313
0.19318174 -0.31876620 0.05207495
-0.11540988 -0.34756100 0.14941418
-0.10565676 -0.33432466 0.17406107
-0.0428661 -0.40585344 -0.16187129
0.11329346 -0.41447300 -0.12852913
0.04033371 0.10347300 0.03071368
0.10750683 0.17212220 -0.00889131
-0.18111769 0.10124606 0.11776686
-0.0970948 -0.26552611 -0.1789245
-0.08040322 0.17240848 -0.03474093
0.0899951 -0.16208416 0.13716522
0.23799008 0.16745719 0.01307932
-0.05080899 -0.14613712 0.15645243
0.07901345 0.16725569 -0.11177475
-0.21174232 0.07678451 -0.04766265
0.17110707 -0.08480911 -0.00042371
0.11481541 0.10347300 0.06735768
-0.05902656 0.14869714 -0.19920496
-0.16347974 0.14806266 0.16251175
-0.0479777 -0.34260499 0.06140063
0.08765239 0.17297119 -0.04492946
-0.1250378 -0.41219508 -0.11731495
-0.09296748 -0.24963799 -0.11568386
-0.06529048 0.17249733 0.0802804
0.1317207 -0.34123435 -0.05143784
0.15607342 0.08205572 -0.10531575
0.1517523 -0.04533228 0.15200521
0.11939172 -0.08636493 0.1768556
0.0150504 0.10347300 0.10903576
0.00150128 0.15023903 -0.19846771
0.03914076 -0.34260499 0.0800057
-0.16661489 0.08907409 -0.08709499
0.19883072 -0.28340532 -0.05304383
-0.09529037 -0.07080058 0.14466448
-0.20476817 -0.16711393 0.00917579
0.10286565 -0.13184854 -0.12847886
0.10685544 -0.34260499 -0.04235183
0.22056617 0.08773029 0.00485241
-0.19199508 -0.24161553 -0.05785173
0.1814174 0.02074525 0.12172904
0.10597792 0.15706943 0.15328765
-0.16116119 -0.04481729 -0.14282909
-0.11144511 0.00361800 0.14126295
0.18756446 0.09953541 -0.04037173
-0.16504263 -0.36779597 -0.02720245
0.19070119 -0.31003721 0.06307336
-0.07348515 -0.23158625 0.13626661
-0.09487776 0.15834530 0.14852215
-0.13579376 -0.27756271 -0.05752812
0.0687225 -0.25821598 -0.19347793
0.05836825 -0.22054439 0.19730864
0.1251958 -0.25740055 -0.08544367
0.12962244 -0.02358462 -0.11941611
-0.08998831 0.12017152 -0.19388195
0.03813169 0.10106201 -0.21095339
-0.19481594 -0.35393644 -0.07873135
-0.10929953 -0.10048317 0.18589741
-0.11383648 -0.23522134 -0.09984452
-0.10514509 -0.22068994 -0.1105913
-0.22049531 0.13559490 -0.04195106
0.12048291 0.18308697 0.20965898
-0.21130761 0.04188992 -0.04232477
-0.11487857 -0.23354679 0.17474443
-0.19217805 -0.31605508 0.06567682
-0.17538428 -0.01445716 -0.01540008
0.00933291 0.15469276 -0.03567219
0.01644554 0.17168303 0.09750098
-0.18654484 -0.31619605 0.0999686
0.11124738 0.16722041 -0.08210261
-0.06809642 -0.39225056 -0.15211243
-0.05995253 0.15930752 0.22733154
-0.06984779 0.04858558 -0.20606663
-0.09376725 -0.34260499 0.01205804
0.1438393 -0.40463184 0.0943719
-0.13805911 -0.29162539 0.15209281
-0.06869539 0.04961201 -0.16852502
-0.02113778 0.17520200 -0.05524252
-0.09088176 0.15681882 0.15663837
0.15283744 -0.01198318 -0.14917349
0.04151802 -0.26356491 0.20466244
0.18944526 -0.33363704 0.067892
-0.12772058 -0.40620247 0.1119117
-0.15695742 0.02117864 -0.15185101
-0.2057947 -0.05596036 -0.06255665
-0.00176551 -0.34756100 -0.13796693
0.20171034 -0.24005140 0.04039075
-0.07511211 -0.33905199 0.19370454
-0.25824928 0.20664586 -0.03393329
-0.21935357 0.11541930 0.00048879
-0.101393 -0.07292635 0.13893831
0.12864714 -0.34260499 -0.05100721
0.07895104 0.04839975 -0.1666104
0.10373613 0.17169692 0.04321342
-0.11896308 -0.35997196 -0.12341064
0.04926301 -0.33620204 0.19870513
0.07741149 -0.30047500 0.19446145
0.07774154 -0.34304611 0.19910412
-0.03519107 0.01601566 -0.17572329
0.11727933 -0.15751812 0.11539785
0.2604544 0.21243648 0.06906558
-0.02213677 0.15235880 0.19318436
-0.06793978 0.13047108 -0.20384395
-0.15063601 -0.07693647 0.14817071
-0.04198526 -0.08821152 0.21320038
-0.16778591 -0.34756100 -0.02800367
-0.09551263 -0.33988056 0.17958656
0.04827307 0.10347300 0.03791935
0.16453115 -0.14926486 0.00511181
-0.05653124 -0.12300467 0.20744372
-0.2073042 -0.03696154 0.06489338
0.11705064 -0.02209248 -0.18344005
0.2068002 -0.03543064 -0.06836137
-0.02770754 -0.33338087 0.20608641
-0.18625782 0.12919610 0.11396899
0.02007442 -0.35262085 -0.20834404
0.08540738 -0.15639491 0.14139173
-0.16187527 -0.13052163 0.02603621
-0.03406978 0.10347300 -0.05316305
0.18330029 0.11851514 0.1220769
-0.05621707 -0.32871956 -0.12870025
0.17452072 0.20646557 0.1992043
-0.14475048 0.16779460 0.00676551
-0.10535171 0.02779201 0.15021925
0.18988856 -0.05973346 0.09874741
0.00506462 0.10347300 0.03784047
0.15185303 -0.26008026 0.00054291
-0.10763539 -0.14693266 0.17835848
-0.16393504 -0.38055910 0.03828546
-0.02822953 0.05480903 -0.18196136
-0.08528149 0.10347300 0.06032777
0.20837932 -0.01083159 -0.05259761
-0.11337885 -0.34756100 -0.13100752
-0.04124186 -0.22723492 0.20596931
0.00188862 -0.21197428 0.2108265
-0.01579583 0.06306888 -0.18313056
-0.11501708 0.16134036 -0.11576772
-0.047599 -0.27530369 -0.19237886
-0.1468412 -0.25640879 0.02883302
-0.18206666 -0.06989822 -0.10248853
-0.19523743 0.11922845 -0.09195999
-0.18060263 -0.35995200 0.10458326
0.18006776 -0.00218072 0.12245923
-0.04483266 -0.20467590 0.15182744
-0.14070918 -0.34260499 0.00307517
-0.19504051 0.11120052 -0.09547784
0.21973034 -0.02460258 0.01087612
-0.14877648 -0.34512660 0.15116893
0.00826682 -0.15030327 -0.20982961
-0.04380902 0.16931165 -0.10823024
0.0109336 0.10259616 -0.21798113
-0.17962065 -0.29449655 -0.09346232
0.23780093 0.17791687 0.00749829
0.21029197 -0.10187382 0.0506558
-0.20779722 0.03807265 -0.05466452
-0.06795754 -0.31366064 -0.12549837
-0.17004017 -0.32950443 -0.10644129
-0.06741269 -0.07124210 -0.15495693
-0.20201891 -0.10457338 -0.06695157
0.11809237 0.06484367 0.19220145
0.02124395 0.17442295 0.08428148
0.06774999 -0.01183347 -0.20690667
0.04952788 -0.34260499 0.04417708
0.00263394 -0.25637487 0.15259408
0.0116161 0.05996715 0.2199028
0.09559306 -0.32207892 -0.18676906
-0.08519002 -0.33705398 -0.19031639
0.12169227 0.03658079 -0.1842575
0.08568388 -0.37249230 0.15415605
0.10533427 -0.38269798 -0.13973759
0.14393657 0.13260067 -0.1602427
0.09578994 -0.29828242 -0.10871639
-0.21247184 -0.00561175 -0.04767982
0.12306098 0.16216893 -0.12115383
0.09571248 -0.04533656 0.19282384
-0.17423701 0.16073876 -0.02208844
0.02230192 -0.34260499 -0.09820882
0.10896224 0.17034071 0.06117419
0.20390247 -0.31203185 -0.03933947
-0.14789583 0.00892993 0.15718009
0.17105716 0.15743784 0.16141502
0.06542878 0.18528133 -0.22983468
0.01199964 0.10347300 -0.01137238
0.20802053 -0.06850878 -0.06161099
-0.11051151 -0.35996667 -0.13189137
-0.14935223 -0.19906972 0.04927618
0.02687282 0.10347300 -0.12535429
-0.01127349 -0.31763386 -0.19622878
-0.07763078 -0.34756100 -0.13903529
-0.013548 -0.24430507 -0.20238171
0.03789102 0.07120008 -0.18137357
0.15691467 -0.21585677 0.00238821
0.01103118 0.08992422 -0.21726843
0.1320637 -0.10413010 0.10867057
-0.09094821 0.12667025 -0.19337584
-0.1343603 -0.40901408 0.1052797
-0.0237543 -0.34260499 -0.17798301
0.10205521 -0.41305854 0.14582128
0.14722075 -0.34260499 -0.09230637
0.06036094 -0.34260499 -0.14917243
0.21637055 0.14002620 0.03640329
-0.08344408 -0.19303581 0.13639397
-0.0353074 -0.33582709 -0.13425349
-0.01434911 -0.15767478 0.16304457
0.1441933 -0.00664735 0.11053407
-0.14877441 -0.18600732 -0.14490808
0.1721161 -0.25667045 0.11786832
-0.17306062 -0.37545069 0.01214365
-0.10747745 0.07773184 -0.19339249
-0.17959699 -0.23147588 -0.09008348
-0.20264301 -0.17332620 -0.05090878
0.01078836 -0.10959402 0.16989043
-0.05290594 0.15145011 -0.18723121
-0.02268244 -0.34260499 0.05799059
0.07880723 -0.29373649 0.12650135
0.01124213 0.20656984 0.27647013
-0.09865659 -0.24599501 0.11561689
-0.0412321 0.05440538 -0.21417009
0.15681953 -0.35499600 0.01154012
0.05815592 0.06642678 0.21784026
0.17860642 0.03800738 0.04715926
-0.20196321 -0.27068165 0.01696
0.07298199 0.08585523 0.21208212
0.15483555 -0.21823575 -0.01406198
0.11192025 0.16799850 0.09494226
0.20497978 -0.21377409 0.04816121
0.06739309 -0.31642329 -0.19426605
-0.195392 -0.34425550 0.00671781
-0.03891443 0.17332987 -0.01422756
0.188949 0.21200156 -0.18590495
0.00259491 -0.18875109 -0.2078447
-0.1837634 0.14922436 -0.09215547
0.1563062 -0.31293269 0.14044237
0.14500421 -0.08939441 -0.15135528
0.17254415 -0.34381586 -0.09476878
-0.15025813 -0.11513956 0.14575951
0.06248955 -0.31219987 -0.1282216
0.01470942 -0.32927092 0.19980808
-0.20454749 -0.06881796 0.04965417
0.13082875 0.10347300 -0.07181415
0.04807521 0.12408426 -0.21101088
0.00597086 -0.34756100 0.06251683
0.2073661 -0.33858999 0.03131685
-0.10443176 -0.34756100 -0.15069172
0.03299018 -0.34260499 0.11858312
0.17433346 -0.35995200 -0.11777251
0.00216039 -0.34756100 0.15318981
0.17023753 0.16090096 -0.04502062
0.20016802 -0.30740146 0.01218405
-0.15094609 -0.35711606 0.14928934
0.10768419 -0.24739538 -0.16968672
0.11008703 0.14932597 0.179258
0.0266778 0.10347300 0.04092128
-0.19509786 -0.22332785 -0.04991959
-0.17961746 -0.35039839 -0.017733
0.03640448 0.10347300 0.09114259
0.02595211 -0.27403193 -0.14502212
-0.1763394 -0.23865618 0.1090907
0.1586913 0.14069943 -0.14829166
-0.16293781 -0.41447300 -0.05696511
-0.20471427 0.04551311 -0.06851091
-0.14355354 -0.29285307 0.0209625
0.10790304 -0.25839370 -0.16890471
0.19035627 0.06413415 -0.10654531
0.03024179 -0.28927093 -0.14304553
0.14680469 0.00991490 -0.16382366
0.05878001 -0.16221367 -0.14867128
-0.18866386 -0.08804712 -0.09042794
-0.19444192 -0.27953509 0.06451222
0.06730497 0.17230767 -0.06104572
-0.25092315 0.20943575 0.07840744
0.01811307 -0.34756100 0.07682242
-0.1305421 0.16835125 0.05238847
0.04836285 0.08128410 -0.17951641
0.23382318 0.15698962 0.00818547
-0.17037154 -0.34260499 -0.09392946
-0.20640102 -0.04190761 -0.043922
0.11443324 -0.04108407 -0.18381926
-0.20432206 -0.09174003 -0.0609158
-0.14951515 -0.25229059 -0.13932821
0.15081363 -0.27564352 -0.13896767
0.12790017 -0.33301981 -0.16087813
-0.16699233 -0.01209864 0.06091936
0.01150722 -0.41222856 0.17147488
0.05424037 -0.09545524 -0.20605739
0.17103786 -0.04942178 -0.03812936
-0.01431241 -0.27016536 -0.14720269
-0.18530253 0.08846125 -0.03515119
-0.19754848 -0.18127155 0.05334538
0.03212226 0.14694050 0.21334772
-0.1247629 0.10347300 0.12781014
0.05508814 -0.07318703 -0.20702037
0.08954723 -0.35462818 -0.18953278
-0.1066594 -0.34260499 -0.08504545
-0.18906197 0.14423685 0.10264456
-0.14286585 0.15941844 -0.09924956
-0.10342998 0.17073446 -0.0165745
0.09260742 0.16927779 -0.07513898
0.17718731 -0.17942433 0.10838881
0.01380472 -0.34756100 -0.04753881
0.08171268 0.17269872 -0.0312635
0.02600324 -0.01505983 0.17772597
-0.07516766 0.17462340 0.23010155
0.14187978 -0.02935335 -0.15949634
-0.21258215 -0.11189141 0.00994875
0.10850463 -0.32072017 0.1796641
-0.08789388 -0.34260499 -0.16161604
0.0010659 0.09115351 0.22647511
0.14778954 -0.23611692 0.04480911
0.01004136 0.17258008 -0.10029845
0.12040546 -0.30783033 -0.08209748
0.21227304 -0.30175848 0.02720797
0.18237147 -0.02707387 -0.11095855
-0.03775314 -0.19044439 -0.20118821
0.00035424 0.10347300 0.03892662
-0.16387961 0.15047159 0.11173541
-0.11878558 -0.25974471 -0.08807989
0.08917153 0.16762437 -0.09958111
-0.09066118 -0.21296725 0.12789067
0.03099848 -0.07711344 0.17013834
-0.05643938 0.01080958 -0.21043958
-0.01060901 -0.28115906 -0.14609906
-0.03949442 -0.08432335 -0.16259186
-0.14916719 -0.18317850 -0.05031611
-0.05841041 -0.14535639 0.15332036
-0.0357212 -0.34260499 -0.12702683
-0.09967019 -0.15844825 -0.17809013
-0.1942255 -0.35253776 0.021919
0.06690954 -0.40811673 0.16371422
0.13402891 -0.34756100 0.12409025
0.00413571 0.08672328 -0.18612861
0.13110489 -0.34756100 -0.11805144
-0.03584072 0.17372100 0.07114746
-0.06775644 -0.34721964 -0.19289179
-0.15562935 -0.40156922 0.06610388
0.10903495 -0.03997998 -0.13622348
-0.11517181 -0.16046065 0.11338564
0.15129712 -0.39603680 -0.08640618
0.01605481 -0.04162784 -0.21544008
-0.15599637 -0.20277961 0.0052175
0.16553977 0.10170607 0.13739674
0.12218372 -0.34466470 0.10703007
0.09755828 -0.01760772 -0.19433507
0.13967513 -0.21302728 0.07375194
0.12868237 -0.09009211 -0.10946813
-0.0016638 -0.13922922 -0.20543869
