# .PCD v0.7 - Point Cloud Data file format
VERSION 0.7
FIELDS x y z
SIZE 4 4 4
TYPE F F F
COUNT 1 1 1
WIDTH 1393
HEIGHT 1
VIEWPOINT 0 0 0 1 0 0 0
POINTS 1393
DATA ascii
-0.10920339 0.01035905 -0.21768849
-0.39714598 0.14120927 0.04009987
0.38909563 0.13486649 0.03300978
-0.31575302 0.03400322 -0.1840529
0.26178529 -0.07471296 -0.17797479
0.03613353 -0.11756928 -0.04494373
0.2830873 -0.01295109 -0.09339152
-0.29882766 0.02271070 0.07487514
-0.37842397 0.13443678 0.08471876
-0.17535554 -0.10285638 -0.07783317
0.1719467 -0.08454637 0.17583588
0.22325717 0.14122608 0.21478242
0.24041624 -0.10485393 -0.14401329
-0.40895473 0.13081491 0.22901805
-0.09767183 0.01498021 0.18609574
-0.15659528 -0.10717127 -0.15507068
-0.2329194 0.13620983 -0.23825387
-0.22434822 -0.11021412 -0.09536396
-0.35249197 0.10004419 0.18193189
0.01326889 -0.10957060 -0.00836189
0.0901778 -0.00820831 -0.20963095
-0.20047725 -0.10836171 -0.13154054
-0.29422793 0.01665382 0.00750967
0.03800012 -0.11696470 0.03767599
0.24729931 0.14120610 0.21620007
-0.1667317 -0.02622386 0.18307497
0.34319427 0.08316361 -0.12189286
-0.22989365 -0.10994217 0.08965541
-0.1193892 -0.11091901 -0.14058837
-0.14374864 0.01353487 -0.21140469
0.22209295 -0.02790243 -0.20837359
-0.06207106 -0.10788232 -0.00623153
-0.38107187 0.12874233 -0.2077044
0.27998902 -0.01760625 -0.08901453
0.26730326 -0.02861858 -0.10978781
-0.22114656 -0.10612670 -0.08335637
-0.22442998 -0.00255367 0.19134379
0.02981059 -0.11575028 0.07254696
0.07218213 0.13627832 0.21909697
-0.31537527 0.04912675 0.19114773
0.37017545 0.11124523 0.14095233
-0.19996387 0.13617834 0.21184802
-0.0277284 -0.10926538 0.12288584
0.29348753 0.01420606 -0.07820184
-0.02235669 -0.00558645 0.1909692
0.14722484 0.13613569 -0.23547751
-0.36983155 0.12348780 -0.18911899
-0.15402089 -0.11244190 -0.08268043
-0.26053004 -0.07462157 0.08307144
0.27581448 0.04562087 -0.21407894
-0.23397728 -0.09938376 0.09987301
-0.35696608 0.14096549 -0.2506406
-0.3378854 0.11713574 -0.22427867
-0.04326254 0.03736091 0.19408312
-0.10231678 0.13093766 -0.25568277
-0.33392916 0.12227493 0.1994312
-0.21100932 0.07468059 -0.21605333
0.40195389 0.14122654 0.04537481
0.18466843 -0.10233938 -0.0314083
0.13450077 0.13501773 -0.2216621
0.20984936 0.13316968 -0.255686
-0.2628575 -0.04349204 -0.14190418
0.05192544 0.11658937 -0.21920341
-0.12969778 -0.11157066 -0.02092661
0.07728051 -0.10665291 -0.04038346
-0.26595751 -0.08283694 -0.14167514
0.07534021 -0.11140451 -0.0606109
-0.35396225 0.10092285 -0.12739866
0.00890162 0.14120026 0.21653601
0.17483029 -0.10276010 -0.01622509
-0.19649441 0.10934542 0.19331347
-0.06482478 -0.10963886 0.09651129
-0.14716843 0.10367328 0.19279309
-0.03232829 0.08177668 -0.21620258
0.20137827 -0.10161814 -0.04487281
0.2986317 0.02098151 0.12175761
0.27816087 -0.00795211 -0.14890183
0.32829699 0.06090871 -0.00714107
-0.2049719 -0.11103400 0.12241227
0.04128969 -0.11324003 0.10340185
0.29950639 0.07105078 0.19042781
-0.02525644 -0.05157097 0.18702526
0.411561 0.13589204 0.01306506
-0.01414739 0.13601009 -0.23080001
-0.10547442 -0.10490068 0.08188446
-0.21047075 -0.10704851 0.02864617
0.24374799 -0.10614124 0.08407783
-0.11641636 -0.11286800 -0.1156695
0.40184355 0.14122869 -0.14913634
-0.17050729 -0.10985558 -0.08853741
-0.22826154 -0.10586821 -0.08739844
0.16683095 -0.10276952 -0.07260922
0.00913182 -0.02444866 -0.20795301
0.38082546 0.13592815 0.08016751
0.27172702 -0.01838217 0.00925442
-0.25153569 0.10749489 0.19869969
0.22463226 -0.10616480 -0.17609058
-0.21423 -0.10611312 0.08719386
-0.37550631 0.12035700 -0.12751027
-0.28939786 0.12041063 -0.21977834
0.24741765 -0.09710519 -0.1483341
0.09441913 -0.08968664 0.18120169
-0.01760976 -0.03645748 0.18840885
-0.15728933 -0.11212004 0.08716356
-0.22509298 -0.10037197 0.08090521
-0.09505336 -0.08211407 0.17618047
0.11725963 -0.10163848 0.16211256
-0.26145156 -0.05817033 0.12835311
-0.10213713 -0.11237878 0.01054669
0.41680597 0.13383164 0.03556588
0.15207428 -0.10763924 -0.14245239
0.262527 -0.03280107 0.17237391
-0.17342192 -0.09064986 0.18053504
-0.29375284 0.01602797 -0.01367883
0.2807446 -0.00407300 0.02937248
-0.0276331 -0.10618332 0.13958475
0.06272187 0.09065030 -0.2168201
0.26720773 -0.08330462 -0.14968336
0.26900535 -0.06968170 -0.07825037
0.21661894 -0.09992214 0.14799965
0.03561619 -0.10630653 0.13257541
-0.19615228 -0.10891622 -0.09543196
-0.27532166 -0.02415420 -0.1587502
-0.08031929 -0.04212869 -0.20648915
0.34487018 0.08566708 -0.08066525
-0.32844236 0.12082166 0.19939504
-0.21718622 -0.10718402 0.13775742
0.10405942 -0.06367176 -0.21103938
-0.13833689 -0.09698602 -0.19477244
0.26900661 -0.06992972 -0.02542519
-0.13053225 -0.11246007 -0.13032362
0.18413769 -0.06399707 0.17715087
0.3402146 0.06662353 0.06989659
0.08792029 0.09330555 -0.2170639
0.2998626 0.02259811 -0.02743509
-0.01468491 -0.10993278 -0.12846157
0.03335808 -0.11472747 -0.00744415
-0.04647695 -0.05062933 -0.21222274
-0.31857047 0.14109054 -0.24933257
-0.24151853 -0.09806133 0.12323385
0.23064649 -0.03445398 0.1891441
0.26265035 -0.05777839 0.15290633
0.21563222 -0.09781093 -0.18799808
0.02897187 -0.11054016 -0.0493082
0.25694241 -0.09967004 0.07493441
-0.26218341 -0.04873331 0.0252181
-0.289582 0.01053849 -0.07595364
-0.21923495 -0.12436000 0.11492199
0.09927639 -0.11066925 -0.05576566
0.17522219 -0.10973615 -0.00976764
0.14212778 -0.10330945 -0.11006204
0.22682685 0.00944229 -0.21779993
0.31368266 0.04079537 -0.17606453
0.31152263 0.13641446 -0.2472076
0.26405097 -0.01384324 -0.21433572
-0.08775756 -0.10008541 -0.20052463
-0.25518044 -0.09965118 0.08147279
-0.10325531 0.07616734 0.19051975
-0.29274983 0.01470920 0.05711855
-0.14792084 -0.01271947 -0.20940228
0.39401527 0.13527341 -0.20066277
-0.36383145 0.10373790 -0.08066785
0.32753395 0.04809127 -0.18193608
0.41167345 0.12744384 -0.03202569
0.25677729 -0.10000272 0.02758194
0.06757507 0.12750771 0.22466917
0.04024225 -0.11283433 -0.04344355
0.243706 -0.10323452 -0.18104237
-0.32514305 0.05786859 -0.06853827
-0.17441303 -0.11016679 -0.00495041
0.31711629 0.13604617 -0.23407576
-0.05854857 -0.11086236 0.06175426
0.213163 -0.10739640 -0.12950078
0.12965035 0.05500072 0.19500776
-0.04776942 -0.11299140 0.10830638
0.25747089 -0.07346620 -0.19231877
0.20373323 0.12278973 0.19464466
0.20774151 -0.02176165 -0.21577737
-0.15898945 -0.10349990 0.03664164
0.37725418 0.12979011 -0.22096171
0.27042536 -0.02093669 -0.12355539
-0.24132038 0.08389821 -0.21677088
0.21254779 -0.09365785 -0.20285992
0.27397836 -0.01424722 0.01415907
0.29801707 0.00886014 0.07896892
0.06442171 -0.11456419 -0.11956483
0.01769398 -0.07735823 -0.20165233
-0.13102098 -0.11154705 -0.01733795
-0.26337028 -0.03966581 0.1304018
-0.17381333 0.04227117 -0.21995623
-0.05414343 -0.00775533 -0.21616141
-0.28699221 0.00700871 0.12810956
-0.31935575 0.04973727 -0.16270867
0.34854724 0.07948452 -0.19578929
-0.17354526 -0.10654761 -0.16535497
-0.23810448 -0.04000302 -0.2073067
-0.40688743 0.13612619 -0.05376679
0.06933987 -0.11006123 -0.11269337
-0.05952887 -0.06928311 0.1781781
0.11986307 -0.10448639 0.05907531
-0.24300885 -0.10491333 0.08937535
0.12521009 -0.05837146 0.17982674
-0.05718645 -0.03075874 0.1822495
0.27541956 -0.01207048 0.1525516
-0.25774848 -0.09740851 -0.15664274
-0.05803882 0.01125177 0.19234153
-0.01398295 -0.11211612 -0.06689806
-0.20301437 -0.11159290 0.02876473
-0.2572859 0.12639040 -0.2255758
0.36697469 0.11790926 0.04764504
-0.15048291 -0.08648976 0.17540621
0.30828998 0.02246152 0.09133096
0.19420685 0.12165056 0.19976556
-0.0442312 -0.11156682 0.05392569
-0.1320274 -0.10784913 -0.1617307
-0.0599779 -0.11232663 0.12929988
-0.32485302 0.09581256 0.1923345
0.22973491 -0.10712903 -0.0322608
0.38688139 0.14071786 -0.14141069
-0.13048901 -0.11053178 -0.14533388
-0.04929991 -0.09986260 0.16890272
0.11492363 0.10514162 -0.21819336
0.0762982 -0.11062447 0.07038778
0.3882895 0.13461514 0.06571335
-0.02959336 -0.04866919 0.18729091
0.122872 -0.10924432 0.0753306
-0.40973373 0.13103650 0.18071219
0.15220206 -0.02908800 0.18280033
0.22220033 -0.10561215 -0.07670801
0.21395488 0.10571357 0.19843241
0.26367654 -0.04600382 -0.10719786
0.09474754 -0.00145237 0.18487064
-0.05345145 -0.11132292 0.05178325
0.39224412 0.13516417 -0.07469707
-0.33995237 0.06793912 0.09812826
-0.08705204 -0.02715125 0.18280285
0.33746464 0.07460515 0.08604417
0.05120245 -0.11377990 0.02714421
0.41684115 0.13216049 0.14313302
0.1244627 -0.05345482 -0.20555139
-0.31976191 0.03909858 0.01538679
-0.41458448 0.12750559 -0.19304283
-0.23763863 -0.09964751 -0.02634654
-0.00364961 -0.11074385 -0.157019
0.05007147 -0.01981057 0.18991655
-0.19513324 -0.10669087 0.08618891
0.05859996 -0.10867317 -0.15567474
0.29537322 0.00540828 -0.14635471
-0.02837224 -0.10856585 0.07018576
0.26184812 -0.07484328 -0.0798993
-0.10066302 -0.10422807 0.1464121
-0.09274069 -0.09323647 0.17942859
0.19687805 -0.10098538 0.12818696
-0.34869206 0.09343513 -0.20046427
0.15085751 -0.07572141 -0.20229304
-0.21770343 0.13608003 0.20831708
0.07762505 -0.11225258 -0.12451927
0.20411472 -0.12436000 -0.14943943
-0.35869435 0.10865531 0.17995176
0.3015066 0.02476359 -0.06526335
-0.33883979 0.10082725 0.19223784
-0.24247138 0.13922610 -0.2227688
-0.02189774 -0.10869739 -0.09965452
0.06999533 -0.05463383 -0.21191111
0.41654484 0.13753111 0.18363865
0.21763337 -0.02774770 0.18984977
0.19278312 -0.10184797 -0.07215315
0.25062424 0.08480549 -0.21685238
0.00524188 -0.10685820 0.12898748
-0.06528748 -0.10355907 0.16072481
-0.1931054 -0.11052746 -0.14609302
-0.18833799 -0.11065017 -0.14759248
-0.2803957 0.13636371 0.22152192
0.24000783 -0.10487499 0.12929844
0.1124705 -0.11512214 -0.00496312
-0.30464731 0.03037143 -0.01919531
0.32298317 0.04254996 0.17083806
-0.074098 -0.10563339 -0.12780023
0.06264938 -0.10601536 0.11275574
0.14276042 -0.06801424 -0.20371313
0.07133225 -0.11635198 -0.0517419
0.40779349 0.14113835 0.12286609
0.16821058 0.11566123 -0.21921785
-0.22357094 -0.10957682 0.12885263
0.35271734 0.08562645 0.15798402
-0.36274102 0.11353752 -0.09907094
-0.0915718 0.12855346 -0.2492255
-0.13556698 0.14111992 -0.24753517
-0.00982658 0.03415931 -0.21914116
0.08930815 -0.11278140 -0.0103278
-0.04492685 -0.11253220 -0.16305722
0.39792786 0.13554606 0.08867839
0.31930752 0.03706102 0.1149366
0.10749911 -0.03167209 0.18929267
0.09459871 -0.11259613 -0.0108901
0.26554623 -0.03502319 -0.04027792
-0.219328 -0.11431653 -0.11950744
0.19475453 -0.10869453 -0.07592925
-0.05717106 0.00613242 -0.21069763
0.27197369 -0.01789144 0.07029499
-0.15715787 -0.10362843 0.02346252
0.33058766 0.05228464 -0.17007662
0.26695383 -0.07059509 -0.18972084
-0.28300511 0.07057059 -0.21591318
-0.06385923 -0.11289580 0.08144879
-0.35347714 0.13640175 0.22359809
-0.03510527 0.10027324 -0.22334928
-0.10271655 -0.01797875 0.19035445
0.03009568 0.12809124 -0.2491852
-0.13040009 -0.09026785 0.17355767
0.20962067 -0.11964644 -0.15107401
0.34054796 0.06713809 0.08701929
0.18938733 -0.10900085 0.03622973
-0.07192566 0.00184349 -0.21034151
-0.1376916 -0.10774023 -0.15451122
-0.32153024 0.04143766 -0.01367549
-0.14121419 -0.10806985 -0.18600376
0.30702992 0.03203506 0.02275425
0.2596181 -0.09799729 -0.08499004
-0.06701202 -0.11342890 -0.13661682
0.31372373 0.02967931 0.1193892
0.01874048 -0.11363555 -0.15612949
0.29296294 0.10081820 -0.22356997
-0.36478433 0.10516039 0.12929991
-0.34965117 0.08249550 -0.11122348
-0.31699076 0.03544135 -0.10454708
0.06619928 0.14117128 0.20853881
0.16015996 0.03746219 -0.21961162
-0.20209069 -0.11008662 -0.16073186
-0.28130201 -0.01395330 -0.02482548
-0.07000053 0.13503417 0.20166205
0.03449597 0.12530434 -0.22556824
-0.14238771 -0.09042163 0.18087988
0.23855148 -0.10475761 0.04435024
-0.21268694 0.09094997 -0.21720929
0.21118537 -0.04159108 -0.21400705
-0.35331613 0.08809812 0.14628395
-0.11755232 -0.10943987 -0.07216444
0.35911304 0.10687316 -0.01254743
-0.0757663 -0.10861057 -0.16737013
-0.04789068 0.13421224 0.19616353
0.02016905 0.12842589 0.19522762
-0.17433829 0.01517666 -0.21815594
0.20911786 0.10587750 -0.2183568
0.19569043 -0.11110405 0.11331805
-0.38948281 0.14104200 -0.01330613
-0.26023321 0.11563699 -0.224704
-0.26115252 -0.06706845 -0.16617103
0.23325832 -0.10511673 -0.15084157
0.35882778 0.09495627 0.17325519
-0.00889038 -0.10974084 0.10959583
0.11108882 -0.10862496 -0.18675985
0.10096189 -0.11206518 0.03782884
0.28781549 -0.00567836 -0.17374903
0.28761243 0.00766634 0.17066636
-0.27782551 0.06554874 -0.2214223
0.11639418 0.08441322 -0.21650517
0.38924761 0.13488444 -0.10644152
-0.26068231 -0.09412011 -0.14466774
0.06864206 0.10905124 -0.22409006
-0.41038213 0.14098218 0.10783447
-0.32653149 0.13632874 0.2193579
0.12694335 -0.11055400 -0.13159151
0.37845986 0.13317498 -0.11181567
-0.09162487 -0.10860927 0.12343761
-0.12278806 -0.11219407 0.14210657
-0.13487475 -0.11091003 -0.09608877
-0.10424759 -0.04433812 -0.2064081
0.04042488 -0.11418799 -0.04262409
0.2432262 0.00648053 -0.21757332
0.05741012 -0.03121372 0.18221981
0.21103729 -0.12436000 -0.11040731
0.23816792 -0.09940003 -0.08725273
0.10911242 0.13394510 -0.25022948
-0.28141423 0.14114910 0.22027207
-0.12347458 -0.02451600 0.18310538
0.32231289 0.05215562 -0.07941356
-0.27308919 -0.02917527 0.1071793
0.21613272 -0.10045121 -0.12059789
0.10244729 0.02339456 -0.21857209
0.14512097 -0.11081475 -0.00936299
0.08911779 -0.06604718 0.17880291
-0.12926216 -0.11139066 -0.05918889
0.38282946 0.12859689 -0.03510959
0.21259655 -0.10122494 -0.02745301
0.09640833 -0.11253399 -0.00881638
0.18528512 0.02558153 -0.2123789
0.01917842 -0.11445513 -0.06839192
-0.17097456 -0.07220927 -0.20312199
0.01855661 -0.11363237 0.1074389
0.29337877 0.05608909 -0.21490128
0.26219033 -0.07148181 0.01757445
0.35189533 0.08418520 0.08930357
0.31192529 0.02725138 -0.05776015
0.10781243 -0.10906105 0.15969803
-0.2688671 -0.04982374 -0.14418414
0.32120724 0.12632645 0.19503249
-0.18396105 -0.10888681 -0.13932741
0.14275655 0.06376413 0.19556747
-0.24435359 -0.01360814 -0.2162069
-0.34489819 0.08738120 0.02869518
-0.1820237 -0.00399842 -0.21690017
0.26295779 -0.05141581 -0.13109675
0.10110748 0.02749288 0.19340614
-0.13481581 0.08198540 0.19690959
-0.08297892 -0.11223592 0.0937882
-0.17454252 -0.11010208 -0.02442123
0.15456354 -0.10992792 -0.09874639
-0.31629072 0.04570074 -0.06393779
0.16253974 -0.09869529 0.16521715
-0.23455209 -0.10671076 0.0220693
-0.10524813 -0.10465690 0.10127087
0.15208443 0.04276989 0.18810584
-0.41549367 0.13687384 0.14025642
0.01512665 -0.11980243 -0.01686318
0.21491757 -0.02224955 -0.20884277
-0.15612162 -0.09922594 -0.2003534
0.08165915 0.03528492 -0.21300596
-0.00755845 0.06053364 -0.22075965
0.32966106 0.13490444 -0.22156422
-0.12210201 0.13373967 -0.22142054
0.06216077 -0.11681511 -0.01428901
-0.26962422 -0.04450497 0.08130032
0.10941824 0.11413134 -0.22455025
0.18923422 -0.10722221 -0.04936259
-0.27610083 -0.00936571 -0.1401021
0.29050361 -0.00160055 -0.17894094
-0.17690242 -0.10975812 -0.07708381
0.00730756 -0.11082802 0.0792067
0.07917935 -0.11220556 0.10053397
-0.1351641 -0.01495251 -0.20920025
0.26317564 -0.05002008 -0.01009276
0.26127445 -0.09594635 0.08613035
-0.27165829 -0.03447647 -0.11700542
0.27767624 -0.00868173 0.1079694
-0.1122027 -0.02279610 0.19005308
0.07864195 0.11646352 0.19874523
0.27981373 -0.01785926 0.08125328
0.33599919 0.07241454 0.0328716
-0.27014312 -0.03975658 -0.16249858
-0.28098891 -0.01439980 0.09182992
-0.10951046 0.11015937 0.19885282
-0.40405287 0.13640808 0.21723498
0.05583159 -0.11099771 -0.09112021
-0.07568307 0.06552920 -0.22110923
0.23383866 -0.10962174 -0.04392399
-0.05851092 0.03843195 -0.21947145
0.13718497 0.05113223 -0.220404
-0.32919305 0.06391914 -0.03262354
0.41681296 0.13355742 -0.04666139
0.36791935 0.11174861 0.18829051
-0.23380707 0.05717439 0.19531903
0.09299824 -0.10558778 0.05558931
0.33525504 0.09300934 0.19153716
0.04886322 -0.11726258 -0.00785717
-0.23900625 -0.10905902 -0.15557414
0.13007824 0.03135464 0.18735752
0.19467047 -0.10287315 -0.19391743
-0.26182138 -0.05129949 -0.11310771
-0.00150278 -0.00618960 -0.21612173
-0.26006092 -0.07877027 -0.14195345
0.37812167 0.13278117 -0.10410044
-0.12254145 -0.10380906 0.13080087
-0.20586174 -0.10152290 0.07998123
-0.08244558 -0.11076389 -0.0651883
-0.23941573 -0.09840226 0.14192599
0.02123014 0.10367192 -0.21797487
-0.15581623 -0.10366572 -0.04101778
0.23793494 0.09188628 -0.22302561
0.21601256 -0.09343152 0.17821828
-0.26241276 -0.04687113 -0.11508884
0.18126933 -0.11133522 0.12668905
0.26124594 -0.08078126 0.09001523
-0.22769045 0.05594957 -0.21476248
0.34264636 0.08234718 0.11257428
0.38500622 0.13993428 0.15345666
-0.27788163 -0.01922863 -0.09182782
0.08763267 -0.10712690 0.16739523
-0.0906378 -0.11281745 -0.00726885
-0.39852533 0.14122579 0.18351832
-0.06470401 -0.10527067 -0.16952379
-0.40499867 0.14116343 0.12432446
0.28781238 0.11447568 0.19917065
0.14141727 -0.11083178 -0.03314074
-0.27473017 0.13634035 -0.24490524
-0.30461941 0.11030497 0.19880537
0.35159743 0.11613572 -0.21890188
0.18061951 0.07618019 0.19638327
-0.11952538 -0.11175463 0.0231927
0.07246941 -0.07325501 -0.20912503
-0.19361347 -0.10260025 -0.01197028
-0.11794775 0.03681819 -0.21949553
-0.23423053 -0.10664397 -0.06476695
-0.04436232 -0.08048609 -0.20764257
0.16998238 -0.11286602 -0.03346619
-0.30806303 0.08050840 0.19654571
-0.08075319 -0.07483398 -0.20885202
-0.2329644 0.09277665 -0.21738141
-0.14527993 0.05826053 -0.22085554
0.10320666 0.12996544 -0.22083179
0.19727449 -0.10626319 0.12078774
-0.36138817 0.13556136 -0.22899424
-0.21008186 -0.10069833 0.13987336
0.01208547 -0.11352600 -0.00158586
-0.26265755 -0.03217750 0.17075037
-0.11085397 0.08123349 0.19092682
-0.20534759 0.05645890 -0.220861
0.0439803 -0.11733326 -0.04753937
0.28357362 0.00189568 -0.19713444
-0.07492823 0.09040413 -0.21682399
0.0791676 0.02052833 -0.21189536
0.33700502 0.11104894 -0.21897971
-0.27108061 -0.03673254 0.0359229
0.2823882 0.12940746 0.19535782
-0.0207498 -0.11700901 -0.06100806
0.00143639 -0.05888259 -0.20465027
0.29546001 0.01680184 0.01516663
-0.26702891 -0.02559612 -0.04139022
-0.4011654 0.14122252 -0.21911745
0.13075794 -0.10819567 0.16078861
-0.35855474 0.09585358 0.07506443
-0.23532986 0.01494613 -0.21816999
-0.41527251 0.12772596 -0.21548376
-0.23883731 0.08114305 0.19115493
0.40740365 0.13610342 0.06437739
0.15989977 -0.11338218 -0.04217394
-0.1619849 0.07428816 0.19646411
0.33843822 0.06395506 -0.06743368
0.20583079 -0.10766925 -0.13376531
-0.24092918 0.02676694 0.18680772
0.25212581 0.02826750 -0.21906182
-0.33756991 0.06433972 0.08226763
-0.09105189 -0.10934770 -0.13328734
-0.09286646 0.00700851 -0.21740379
-0.25002406 0.00132299 -0.2106105
-0.03060887 0.12745849 0.22505416
0.17484081 0.00274288 -0.21732882
-0.25965726 -0.09590023 -0.13697078
-0.27914473 0.11759971 0.19951074
-0.26673656 -0.07768796 0.09162608
0.1672086 -0.10960560 -0.08670069
0.35491423 0.10067146 -0.03770271
0.02505865 -0.11253140 0.03159368
0.08382572 0.00315555 -0.21051883
-0.34788471 0.09184284 -0.04194822
0.40343979 0.14120332 -0.04397482
0.11206418 0.11838330 0.19404071
-0.22215574 0.00279263 -0.21067588
0.13720784 -0.11087858 0.03391162
0.02324637 -0.10479343 0.17340709
0.05629712 0.14110414 0.223229
-0.05070091 -0.02193162 -0.21508088
-0.34039162 0.06857050 0.01974698
0.2810554 0.07739865 0.19659362
0.08393188 0.06853947 -0.22131037
-0.09261337 -0.11172861 0.11373763
-0.32679077 0.04839590 -0.0526088
-0.37840802 0.12444168 -0.09916786
-0.26438606 0.14116708 0.21896679
-0.30184997 0.02668955 0.06230108
0.14717501 -0.11015208 0.08208001
-0.3256023 0.04682605 -0.09871599
0.07306653 -0.11189720 0.13491646
0.10404357 -0.11540572 -0.00551183
0.41671052 0.12830514 0.03387723
0.18227303 0.13633233 -0.24916149
0.330645 0.06441614 -0.04495683
0.08023783 -0.09811119 0.17005013
0.02681515 -0.11168012 -0.07919188
-0.01773298 -0.11313466 0.13183216
0.29109094 -0.00092541 0.0064479
-0.01585887 -0.11835578 -0.00405928
0.07545916 -0.11205149 0.1229111
0.27890639 0.00282288 -0.2058217
-0.40019332 0.14123649 0.02577652
-0.18348282 -0.07533687 -0.2093428
0.18881742 -0.11105971 0.1302682
0.1841059 -0.10169176 0.1041099
0.41288532 0.14081778 -0.03477321
0.34841735 0.09096581 -0.19568264
-0.09478914 0.00369144 -0.21057024
0.03710044 -0.05221381 0.18696033
0.02075156 0.06686299 0.18979891
0.18509872 -0.10902968 0.06034678
-0.3079413 0.03470875 -0.08007236
-0.26804019 -0.06331158 -0.02081717
-0.25018569 -0.09045172 -0.19703195
-0.34119337 0.06981801 -0.13234264
-0.1792323 -0.10654195 0.13009107
0.15824654 -0.11010512 -0.05864161
-0.33326683 0.05786770 0.03290474
-0.13662295 -0.11135205 0.00335706
-0.26808504 -0.06190710 -0.07189904
-0.14554023 -0.11174109 0.13869886
0.14192251 -0.10294436 0.12757555
0.03079223 0.09225534 0.19709826
0.06323489 0.13884814 0.22965
-0.24735046 -0.03348114 -0.21394725
0.24107505 0.02070127 0.18631354
0.05697305 0.08365755 -0.22217063
0.31123964 0.13495056 0.22507761
-0.02480608 -0.11402755 0.12070106
-0.20375271 0.05814875 0.19536449
0.26329237 -0.07635559 0.16924215
-0.05624193 -0.11533475 -0.08142128
-0.27846175 -0.00941475 -0.20553783
0.0690861 -0.10994379 -0.11609544
0.14854987 -0.11381444 0.02400875
-0.25594492 -0.04398344 -0.20846351
-0.23700727 -0.11028160 0.05064177
0.04256633 0.05700368 0.19508106
-0.03909449 0.13627043 0.21896491
-0.26093375 -0.02631033 -0.20216497
0.1817927 0.12283576 -0.22530773
-0.28899752 0.01039315 0.16775851
-0.03715604 -0.02982892 0.18229548
0.16022947 -0.11329000 -0.05909627
0.02875944 0.04796612 0.18853098
-0.24842981 -0.10391780 -0.012324
0.36852447 0.14080422 0.22694888
0.09665376 0.10677392 0.19294961
-0.18241987 -0.10294267 -0.01646591
0.14263501 0.07859827 0.19076829
0.0370792 -0.11297512 -0.00639813
0.34097607 0.07984967 0.04462296
-0.18227634 0.13761386 0.19688939
-0.21741014 -0.11103400 -0.11593233
0.22547579 -0.10029904 0.05822021
-0.24343287 -0.09805932 0.06763055
-0.22701116 -0.08765833 -0.206307
-0.11543862 -0.06895956 -0.20343382
0.24221381 -0.10570557 -0.0763584
0.23160271 -0.09975878 0.07398013
0.22665147 0.10819560 0.19859754
-0.16836167 -0.11005945 -0.07217647
-0.11930946 0.13184342 -0.22112122
-0.03208283 -0.10987624 0.03144557
-0.12948893 -0.11261350 -0.11896764
-0.05085372 -0.10710086 0.08061795
0.30018153 0.02301960 -0.12652959
0.21856097 -0.10041098 0.09196203
1.523e-05 -0.10997394 0.10308016
0.22771963 0.13137376 0.1956819
0.27308899 -0.02218724 -0.2017707
0.07473445 -0.10142407 0.16488101
-0.18490998 -0.07052095 0.17844972
0.25386666 -0.04718043 -0.2099025
-0.07911305 0.04794916 0.19470805
0.01568782 -0.11851483 -0.00254352
0.20705621 -0.11053331 0.12937848
0.04828234 -0.10575223 -0.16517183
-0.2981579 0.03994258 -0.21275767
-0.40168068 0.14121405 -0.13423817
-0.221928 -0.11028057 0.08231909
0.19486489 -0.10775606 0.13795254
0.24646698 -0.09754546 -0.11866462
-0.28820208 -0.00331426 -0.18720698
0.23436318 0.11094601 0.19881522
0.12857956 -0.08317760 0.18251648
0.19307464 -0.10148382 0.09329869
-0.07019806 -0.11278817 -0.09895116
0.27274345 -0.01636693 0.10545028
-0.33880145 0.07827310 -0.04724317
-0.27242125 0.13621930 -0.23873402
0.24351984 -0.08975404 -0.19316202
-0.37136174 0.11443404 0.01195341
-0.0982464 -0.11026295 -0.06041287
0.12207914 -0.11011480 0.01330546
0.08544121 -0.10446798 0.1492593
-0.29636123 0.01946258 0.01230687
-0.21739493 -0.11103400 0.08788846
0.17864537 -0.05771112 -0.21205337
0.31338874 0.04040744 -0.16533447
0.24615452 -0.03058987 0.18245019
0.21546104 -0.10698247 0.1311045
-0.26528869 0.13639406 -0.24734812
0.30581628 0.01917087 0.00558417
-0.22750616 -0.10626031 -0.05657967
-0.19945673 -0.10579407 0.14081385
-0.27002021 -0.04161907 -0.06043812
0.41105636 0.12753082 -0.19450602
-0.19056638 0.08857676 -0.22280816
-0.37265349 0.12744971 0.05360127
0.27020867 0.11852707 0.19951921
-0.34170661 0.07054540 -0.01049368
0.24045685 -0.10629186 0.00736652
0.04871702 -0.11418608 -0.01700789
0.15280095 -0.10884336 0.15192327
-0.10327195 -0.08708734 -0.19995652
0.2122635 -0.10785647 0.06904242
-0.26240112 -0.02762781 -0.20881443
-0.34257529 0.07881952 0.18820795
0.34070231 0.06735576 -0.05386472
0.37879426 0.13625484 -0.24271487
0.07032594 0.04702347 0.18845925
0.14646908 0.00851691 0.19213232
0.35035642 0.08191076 0.11638368
-0.26172329 -0.05182603 0.14385718
0.15875034 -0.10327534 -0.02711608
0.31999517 0.04910437 -0.10637076
-0.09184828 -0.11360791 -0.09758875
0.17170458 -0.10814612 0.03807313
0.2315237 0.08887888 0.19734516
0.3558161 0.10201966 -0.12799913
0.32738271 0.04772981 0.10261609
-0.03447518 -0.11488230 0.09976828
0.34909485 0.13615532 -0.23844159
0.27079728 -0.04422388 -0.09953294
0.2832982 -0.01259203 -0.13175399
0.10606413 -0.01505677 0.18376426
0.19257902 -0.10215813 -0.01118452
0.21092309 0.05601680 -0.21472821
-0.26703433 -0.07616526 0.01094914
0.16541122 -0.10297904 0.02192913
0.00510367 -0.10898744 0.08334095
0.29347467 0.04605824 0.19422025
0.08679406 0.00860421 0.18565075
0.16108261 -0.10866431 0.02910865
-0.27297959 -0.01406663 0.00715695
0.24577052 0.01013483 0.18545967
-0.08752921 0.14115064 -0.24534799
0.32283399 0.05324459 -0.21487426
0.12413058 0.13606590 0.20762494
0.25676135 -0.09961558 0.09613055
0.05417673 -0.11393619 0.00386942
0.02487149 -0.10899125 0.06808461
0.1830448 0.12298945 0.19464694
-0.14980668 -0.11032017 0.08773808
-0.29336206 0.14047669 -0.25373131
-0.05664519 -0.11180797 -0.0541411
0.26029178 -0.08520055 0.03540476
-0.38861307 0.13510212 -0.22310024
-0.15523884 -0.06597056 0.18580056
0.19942151 -0.11147222 -0.10458414
-0.1724897 0.08666102 0.19143848
-0.14126155 0.12434730 0.19478827
0.37205516 0.11382921 -0.02775635
0.27729859 0.13580781 0.20300696
-0.00365719 0.13558957 0.19643679
0.33102187 0.05285999 0.11058245
0.11269394 -0.11183640 -0.04094141
0.00811136 -0.11362453 0.00493906
0.1168351 0.07600270 0.19623599
-0.16519832 -0.11181270 -0.10762408
-0.11389335 -0.03009626 -0.20792636
-0.10821324 -0.09128228 -0.20521504
0.37991061 0.13486785 0.10388466
-0.04156498 -0.11528611 -0.10097832
-0.25166313 -0.10191240 -0.12356557
-0.154272 0.01004789 -0.21778696
0.20881983 -0.10039260 0.13518089
0.11376302 -0.11294287 -0.14764037
-0.24959973 0.07685004 0.19082843
0.28304396 -0.01301723 -0.04867826
0.24105035 0.07806142 -0.22219654
0.20039098 0.11123653 0.19345816
-0.0809678 -0.10608007 0.06321196
0.3819501 0.12773440 0.16110159
-0.22772578 -0.02679477 0.18304173
0.27333422 -0.03254604 0.05613776
0.14847565 0.13613806 0.2105257
-0.06161246 -0.03378478 -0.2140367
0.09636665 -0.07202603 0.18454859
-0.1614485 0.05493474 0.1890084
0.33648038 0.06101901 0.07971265
0.17265399 -0.10150038 -0.17543226
-0.30590044 0.03883813 0.18301832
-0.16621591 0.11801623 0.1941263
-0.27892073 0.14123000 -0.2380542
-0.21811037 -0.11089083 -0.052829
-0.28887404 -0.00257403 -0.06560261
0.3666189 0.11740884 -0.08906838
-0.03940554 -0.10990053 0.11648382
0.27025294 -0.04867681 -0.01986099
-0.36114571 0.09974577 0.06476769
0.26420487 0.12762300 -0.2550754
-0.20100328 -0.10218562 -0.02593248
-0.39567353 0.14119459 -0.20314323
0.00020682 -0.04599800 0.18083332
-0.03237101 -0.11470198 -0.01935667
0.1072715 0.00839942 0.19218559
0.22382128 -0.10547027 -0.05315317
-0.31985374 0.05039358 -0.18110645
0.36475458 0.10354232 -0.16322086
-0.09453176 0.08186311 -0.2162707
-0.04196209 0.11250534 -0.21882422
-0.09020788 -0.11264522 0.02506079
-0.24067585 0.13805941 0.19697644
0.03766802 -0.08376510 0.17579831
0.13107453 -0.10422651 -0.03228592
0.37652823 0.12754337 -0.24990267
-0.03048684 0.03666304 0.19403146
0.17141176 -0.10204392 0.11373909
0.04262744 -0.10932367 0.01026102
-0.32785085 0.04996258 0.15289588
0.22269201 0.00238345 0.18491932
-0.41187969 0.13971254 -0.25112306
0.38251359 0.12843192 -0.18928473
0.03395979 0.04043621 0.18802556
0.08223452 -0.11613961 -0.0298127
0.04198805 -0.11601279 -0.0867392
0.04090588 0.11952163 0.19393963
0.20719002 0.05885378 0.19528119
-0.14089037 0.11885934 -0.21949107
-0.1402647 -0.10427849 0.00322514
0.04195519 -0.09862714 -0.19465987
0.04700312 0.13976844 0.19804655
0.26859155 -0.07315904 0.11807176
-0.23946517 0.13578618 0.20223425
0.19568528 0.10780779 0.19855999
-0.08727408 -0.10622114 -0.04203908
-0.26778345 -0.02394482 -0.11618806
-0.26576587 -0.08383982 -0.15633516
0.00570454 -0.11365786 -0.13053724
0.17798128 0.14113709 0.2053237
0.26395495 -0.09186401 0.04080012
0.05064641 -0.03152728 0.18214456
-0.22949807 -0.09968734 -0.13258016
0.34651715 0.10253387 -0.21721805
0.00692086 -0.09485456 -0.20352377
-0.0897918 -0.11039965 -0.07391327
-0.19754783 -0.10829908 -0.1484026
-0.11737441 -0.11193120 -0.02353548
-0.13213652 -0.11105387 0.07200988
0.03724813 0.12508171 -0.22008177
-0.23232127 -0.11006790 -0.08793941
0.26950457 -0.05540501 0.01404048
0.28491431 0.00219699 0.04823823
0.13321917 -0.07279818 -0.20957247
0.10280326 -0.11422414 -0.11543089
0.00608656 0.07365079 0.19025471
0.25891087 -0.09812310 0.10519898
0.03132936 -0.04456799 -0.21283441
0.12388275 0.11165720 -0.22436868
-0.20147978 0.11851035 0.19967835
-0.12017331 0.13619849 0.21311799
0.22979662 0.06247423 -0.22124659
-0.09502154 -0.09364448 -0.19672253
-0.11068984 0.00041940 -0.21700198
0.12952216 0.03148427 0.19365432
-0.28680283 0.00672391 0.12604396
0.33197081 0.06639689 -0.00528328
-0.13958193 -0.11325861 0.04342034
0.41085426 0.13513251 -0.25398885
0.10638903 0.10285204 0.19263575
-0.31809214 0.03716997 0.1683343
0.00177406 0.11587664 0.18873086
-0.13654785 0.06034890 -0.21485946
0.26784379 -0.07974814 0.01997423
0.04844144 -0.04187975 0.1812077
0.0563766 -0.11700975 -0.01714105
-0.26793296 -0.02366350 0.02197299
-0.18270439 0.08406156 0.19712964
0.37648379 0.12028262 -0.17874878
-0.01974457 -0.06653377 0.18537123
0.27299387 0.01530677 -0.21791973
-0.3954833 0.14118902 0.0012009
-0.35878731 0.09620344 -0.06475684
0.08897045 -0.11207889 -0.10552067
-0.19038217 -0.10261082 -0.03189687
0.13692844 -0.10324094 -0.13838669
0.18756356 -0.10116729 0.14289336
0.03722343 -0.09457179 0.17897786
-0.23782356 -0.09943191 0.05229232
0.03176386 0.08660231 -0.21654967
0.34731143 0.14070550 0.22791097
-0.37581831 0.13591950 0.21059453
-0.19721072 0.14080599 -0.25204323
-0.19723491 0.06081813 -0.215041
-0.13221444 -0.04865747 -0.20613303
0.31576017 0.04761497 -0.20670413
-0.01747309 -0.09250147 -0.19752351
-0.08282547 -0.06507910 -0.21077365
0.14281502 -0.10907254 -0.06484792
0.11723291 -0.11027788 -0.03822391
-0.09762995 -0.10593427 -0.00459499
-0.39541496 0.14119029 0.1059875
-0.11340687 -0.11313835 0.11344
0.29751838 0.00819484 -0.05065275
-0.27814062 0.13188450 -0.22109121
-0.40981281 0.14108156 0.19816519
-0.18329362 -0.10904675 -0.12611452
-0.11153643 -0.11326907 -0.08893206
0.15213811 -0.11043309 -0.03627944
0.39544597 0.13537756 -0.09472076
-0.39787397 0.13022976 -0.25567601
-0.26975124 -0.04372381 0.00399602
-0.09966156 -0.01716639 0.19041398
0.20488622 0.11080949 -0.21880554
0.26368931 -0.04573037 -0.16988328
-0.07342887 -0.10472502 -0.19722551
0.17874914 -0.10959150 -0.00422234
-0.07630605 0.12799651 0.20058469
-0.00152278 -0.10545676 -0.19686145
-0.40725044 0.14113161 0.15257172
-0.31968178 0.03900494 0.08620133
0.23899513 -0.01345416 -0.21627976
-0.41271007 0.12741583 -0.15633707
-0.10561667 0.13366261 -0.25017317
0.05415969 0.14123632 -0.23870304
-0.26349019 -0.03896508 -0.00279045
-0.16454205 -0.10980289 -0.11106318
-0.19964802 -0.10206151 0.04758829
-0.24496855 -0.10406431 0.12571522
0.21287029 -0.10599757 0.01403024
-0.2262637 -0.01767800 -0.20922775
0.36487316 0.14022922 0.1980666
0.01296162 -0.11049009 0.04961607
0.40469969 0.14118691 0.16693638
-0.41049936 0.13548813 -0.0243812
0.28020767 0.07603539 -0.21629429
0.23021441 0.07543015 0.19067945
0.24091615 -0.10604550 0.05084975
0.07398777 -0.11482243 0.08480219
-0.13326911 -0.06570516 0.18580874
-0.23836374 -0.06648759 0.1786731
-0.0699909 -0.11056324 0.15729031
-0.22867599 -0.07964185 -0.20826789
-0.00823861 -0.11087197 0.0779783
0.11885888 -0.10475175 -0.03406971
0.26250947 -0.09281390 0.15336214
-0.04771009 0.13508584 -0.22171635
0.11396058 -0.11306515 0.11975505
0.01233795 -0.08972038 -0.19881591
0.05097912 0.14122398 -0.24022437
-0.23389946 -0.04750505 0.18776609
0.09491814 0.14121278 0.21155627
-0.27014583 -0.04062864 0.07045733
0.02504383 -0.11445446 0.03773849
-0.19785769 -0.01478092 -0.20940372
-0.4157172 0.13173893 -0.00330913
-0.05453838 -0.11572945 0.05945976
-0.20471911 -0.10826597 -0.12233828
0.39312316 0.13649300 0.22452734
0.14907496 -0.10927626 0.14395645
0.0933748 -0.01173074 -0.2161001
-0.10118911 0.04855385 0.19475006
0.21774437 -0.10774093 -0.07028248
-0.26131198 -0.09262973 -0.17211516
0.05868636 -0.09591147 0.17121963
-0.08537192 -0.11007516 0.05818084
-0.27902302 -0.01733458 -0.1311194
0.27200672 -0.03669648 0.15066733
0.25350324 -0.09446827 -0.03733502
0.11909117 -0.02250811 0.18323105
-0.07469326 -0.11324245 -0.04057676
-0.12147582 -0.11076448 -0.1474007
0.06328155 -0.11274871 0.09427592
-0.17349387 -0.10988344 0.05393041
-0.11952408 -0.10390322 -0.15417725
-0.32283298 0.13860245 -0.25517056
-0.13433942 -0.11097582 0.07325365
-0.08666296 -0.11280461 0.01968207
-0.19273769 -0.11079074 -0.12505698
0.38165074 0.13677788 -0.06908804
0.21006716 -0.10590411 0.1194704
-0.2213969 -0.08008122 -0.20158919
0.2881705 -0.00526667 -0.13577574
-0.23933177 0.12615794 0.20028742
-0.14847398 -0.10825862 -0.1833833
0.22999961 -0.05661396 0.18677861
0.39484794 0.14118818 -0.22654823
0.33920681 0.06516501 -0.14233626
0.00251998 0.06249299 -0.22088381
0.28582626 0.05152437 -0.2204007
0.18375588 0.02227609 -0.21212176
-0.07559446 0.08552911 -0.22230949
-0.00568397 0.10347922 -0.21795294
-0.2944019 0.01688378 0.04016111
-0.2113155 0.07284428 -0.21592388
0.00114919 -0.11748057 -0.04771148
0.34784297 0.09010854 -0.14568444
0.35830189 0.10573305 -0.10379112
-0.13380722 -0.10385908 0.09311336
-0.049064 0.14123357 -0.2395522
0.10528959 -0.11507800 -0.0608085
-0.16860189 -0.10993109 0.06859834
-0.30559416 0.03301830 0.17482365
-0.29593298 0.01890174 0.11960497
0.1329556 -0.11026885 0.11580524
0.09162345 -0.10866926 0.11960468
0.13220143 0.11204467 0.19863331
0.04371004 0.11706289 -0.22472922
-0.24528569 0.06308398 0.19573127
0.35398254 0.09928041 -0.12205408
-0.26404533 -0.08921265 -0.04562495
0.29732686 0.12097412 -0.21983583
-0.03337446 0.02094156 0.19293716
0.0224758 -0.11558419 -0.0047889
-0.31292096 0.03004969 -0.06061471
0.2221232 -0.10079937 0.00245879
0.23210676 0.06396282 0.18976407
0.36481403 0.13599837 0.22515199
0.03300636 -0.10447751 -0.18255244
-0.09868414 0.08198541 0.19095142
0.3819483 0.13709806 0.06624789
-0.26616582 -0.08214143 -0.09786026
0.37844695 0.12290792 -0.02570533
0.26047178 -0.04224196 0.17115347
0.10156158 -0.11548924 -0.03673446
-0.24569017 -0.09783453 -0.00903602
0.26225416 -0.07036317 -0.12814993
-0.27418963 -0.02650820 -0.02102144
0.1425923 -0.11044394 0.07047344
-0.1159192 0.08416739 0.19701769
-0.2615268 -0.05586321 0.12940346
-0.23562142 0.14076159 -0.25253691
0.00916997 -0.03804975 -0.21337832
-0.03787216 0.09548260 0.19744014
-0.2571233 0.06900797 -0.21575072
0.24167878 -0.09850464 -0.12770904
0.06942605 -0.11342984 0.00538301
0.36046828 0.09704717 -0.06910139
-0.09866612 -0.11234589 -0.06137507
-0.26400034 0.13599381 0.22512666
-0.25771298 -0.08722291 -0.01524779
-0.14278399 -0.07273078 0.17787477
0.26907109 -0.06807232 0.00253475
0.26577382 -0.02458988 -0.19762148
0.30483831 0.01789378 -0.11135416
-0.1873786 -0.06385568 -0.20453077
0.11981225 -0.03798941 0.18183566
0.31278031 0.03960613 -0.13478507
0.06677957 -0.11351450 -0.03322438
0.01591592 -0.11424146 0.06524667
0.28203019 -0.01454238 -0.0052983
0.10549557 -0.04546218 0.18789281
0.33917913 0.07716536 -0.12781621
0.3034713 0.01606904 -0.03381646
-0.19039259 0.06107262 0.19555504
0.1254692 -0.11012124 0.14124678
-0.25166922 -0.09460404 -0.00318055
-0.41319035 0.14072796 -0.22586628
-0.23631017 -0.07068340 0.17839621
0.38935098 0.13488820 -0.15301714
-0.33581083 0.07380533 -0.05772661
-0.07854535 -0.10970495 -0.12805891
-0.02069751 -0.10675834 -0.15364434
-0.10681552 -0.11092514 0.138992
0.220273 -0.12172584 0.11995296
-0.18146721 -0.05079066 0.18073873
-0.20207142 0.06918869 0.19611832
-0.19062722 -0.11138748 -0.08051776
0.05113473 -0.11282655 -0.141488
-0.29158564 0.13002852 0.2303471
-0.07946331 0.06180169 0.18945101
-0.39006376 0.13507204 -0.10745077
-0.20486714 0.14111420 0.22269792
-0.28375739 -0.01026365 -0.01604185
0.19909496 0.09848008 0.19793513
0.35820406 0.12061349 0.19835611
0.14777838 -0.10988456 0.10419024
-0.22652034 0.07963238 -0.21643775
0.25355647 -0.10220079 0.0004652
-0.25368553 -0.09665961 -0.18639675
-0.01349346 -0.09844157 -0.20165715
0.01721406 -0.11627002 -0.08184534
-0.33539912 0.06107100 0.07212682
0.26342638 -0.04798958 -0.07123831
0.15480115 -0.11039735 -0.02402183
-0.29304261 0.01509520 -0.12046169
-0.01117293 0.01646705 0.1861689
0.21346605 -0.11067026 0.02482741
0.1946722 0.13605381 0.19649346
-0.22937345 -0.03335878 0.18242665
-0.28231019 -0.01243748 0.03023173
0.05252307 -0.10983434 -0.12510734
-0.22192839 0.08690564 0.19158603
-0.27417746 -0.02652106 0.07150159
-0.26729582 0.14089857 0.20069288
-0.26777728 -0.06684718 -0.15433583
0.37360302 0.13371044 0.19903933
0.30498361 0.02934118 0.0397314
0.20692922 -0.11181549 -0.15107401
-0.24939739 -0.09965263 0.15884175
0.35852288 0.09420230 0.13219197
0.26269499 -0.05670653 -0.12098228
0.18055594 0.05666863 0.18910026
-0.00082504 0.04595347 0.19452352
0.26765125 -0.02733140 -0.16828781
0.32991223 0.05114672 -0.05586424
-0.39989619 0.14124094 0.00167927
-0.14615501 -0.11258347 -0.09022814
0.03090835 -0.10695329 -0.19415861
0.08201657 -0.11596378 -0.05372127
0.21725063 -0.01710748 0.19052572
-0.02503322 -0.10535733 0.15211708
0.1607736 -0.10094287 -0.18298251
0.17450723 -0.01127604 0.19087128
0.22344397 0.13620684 -0.23804762
0.11065153 -0.10525668 -0.00857282
0.36129514 0.10993792 0.07863691
-0.22832776 -0.11083413 0.02959535
-0.05490064 -0.10895120 0.14203353
-0.09648962 0.10374699 0.19267354
0.26244018 -0.06761728 -0.02115528
0.262761 -0.05458173 -0.06822252
0.09669945 -0.10447979 -0.15414085
0.06409537 -0.11376709 0.11780722
0.12103015 -0.10399261 0.09647506
-0.0226621 0.12964857 -0.24937089
-0.21605536 -0.10143353 -0.03984997
-0.16061615 -0.01614048 -0.21608742
-0.08088328 -0.11270306 -0.07709537
-0.09844405 -0.10497125 0.09334083
-0.18024566 0.09824462 -0.21765193
-0.27966049 -0.01636054 -0.14576518
0.3013458 0.01325767 0.00528665
0.11662365 -0.08450857 -0.20706128
-0.11191883 -0.11099108 -0.15087733
-0.36213691 0.10130181 0.12456035
0.03857071 -0.11446036 0.0033336
-0.37191243 0.11521584 0.02789807
0.1860576 0.14121462 -0.23690483
0.128892 -0.10945439 -0.07082952
0.03759051 -0.10870966 0.05554091
-0.12761008 0.01588069 -0.2115697
-0.24349056 0.06192371 0.19565065
-0.16126471 -0.00576487 0.18437961
0.28875232 0.00796769 -0.06937334
0.11862024 -0.11023120 -0.0084222
-0.00504855 -0.10924210 -0.1038209
-0.1657743 -0.10308846 -0.08619892
-0.33449766 0.14089056 -0.22570247
0.08679394 -0.02177344 -0.20856457
-0.14081962 0.11490284 0.19927573
0.08893381 -0.10605604 -0.04734699
-0.26431096 -0.08779241 0.14007493
0.2071924 -0.10510447 -0.18826035
-0.28486241 0.13175497 0.22448607
0.17115386 0.06880622 0.19004908
0.26451023 -0.03956717 -0.14848326
-0.219328 -0.11279722 0.08879039
0.24623083 -0.10457576 -0.097999
0.19174032 -0.10134360 -0.13410277
0.16857293 -0.10979849 0.02525696
0.01598604 -0.11619285 -0.08402134
0.23868038 0.13638087 -0.24710458
-0.41572516 0.13273936 0.07635601
-0.0865268 -0.10585094 -0.07851823
0.04522263 0.11884109 -0.2248744
-0.28455889 0.00334595 0.03716505
-0.163443 -0.10345831 -0.03400402
0.14235213 -0.08475697 0.17575768
-0.18983523 0.08944854 -0.21705355
-0.37734948 0.13317894 0.00179036
-0.19861803 -0.11089019 -0.10230657
0.32680318 0.04694208 0.08359379
-0.01693449 -0.11876425 -0.01128338
0.24152668 -0.09580802 -0.18410415
-0.27859934 0.00354202 0.17989195
0.00397755 0.01106755 -0.2174076
0.08305459 0.00708240 -0.21736624
0.27440861 -0.01360045 -0.02946921
0.13390462 -0.11440087 0.01447103
0.28348892 0.00005946 0.13434666
-0.27701724 0.00435802 0.18939481
-0.25816057 0.02030759 -0.2120717
-0.16809738 -0.10718938 -0.12527164
-0.27255132 -0.01366799 -0.19239256
0.26791091 0.11441764 0.19918532
-0.24910538 0.08708093 0.19735049
0.11050637 -0.11181972 0.02493174
-0.38612127 0.13377949 0.09959032
-0.25251396 0.09853879 0.198105
0.29934088 0.14079338 -0.22462003
-0.19799159 0.06750164 0.18996618
-0.05230866 -0.11394615 -0.13409378
-0.13576069 -0.02262520 -0.20864858
0.1407438 0.04019752 -0.21346104
-0.1500261 0.13629755 0.2194899
0.26351603 0.10792044 0.19859133
-0.38747583 0.13582671 -0.23599682
0.16530683 0.03775684 -0.21329714
-0.23754115 0.03536187 0.19382992
-0.39561632 0.13546289 0.0703604
0.18530835 -0.10730621 -0.09760302
0.31986216 0.04892942 -0.14034121
-0.09220038 0.01192071 -0.21774328
-0.13512126 -0.11330612 0.05027293
0.21038668 -0.07787123 0.1771133
-0.09833568 0.08345041 -0.21639286
0.04484997 0.07991352 -0.22194571
-0.31947731 0.03875897 -0.13180825
0.29877502 0.09966986 -0.21800388
-0.2163548 -0.12436000 -0.11124273
-0.03987433 -0.10635419 0.12750654
-0.01634168 0.13465290 -0.25036378
0.08075251 0.10154821 -0.21782417
0.08754933 0.10495279 -0.21814807
-0.13447724 0.04705806 0.18844261
0.03120935 0.08843772 0.19688156
-0.09204007 0.07691656 0.19646956
-0.28646752 0.00622077 0.14817247
-0.32335151 0.09340374 -0.21760337
0.22760027 -0.08897012 -0.19798092
-0.2281197 -0.10735052 -0.04857351
-0.14884093 -0.10383954 0.03407613
0.3970428 0.14119428 0.00272423
0.23649297 -0.10666291 -0.01441859
-0.32930154 0.06408119 0.07707604
0.22063879 -0.10112487 -0.19523838
-0.00200095 -0.11109363 -0.09572912
-0.10798603 -0.11207540 -0.05386501
0.4159176 0.13930669 0.12726619
-0.32358541 0.07572669 -0.22116209
0.00792961 -0.11414476 -0.09580759
0.2724666 -0.03559094 -0.12311673
-0.18540086 -0.10245329 0.17113871
0.12494776 -0.11123138 -0.07216022
0.19929884 -0.11148889 0.0631081
-0.00247591 0.14101965 0.22437623
0.1004774 -0.10518027 -0.07928361
0.18705478 -0.10113375 -0.17228471
-0.00612958 -0.11443417 -0.07789096
0.25629298 0.12991827 -0.22605488
-0.00791736 0.07932917 0.19063592
0.14367506 -0.11302906 -0.11310059
0.18254912 -0.11222614 -0.00156902
-0.11265028 -0.11087006 0.13249683
0.1499331 -0.11386150 -0.00718001
0.26133225 0.05251131 -0.22066418
0.13590998 -0.11433339 -0.02268459
-0.19623235 -0.10864579 0.1019436
-0.31357138 0.09071153 0.1971955
0.36627971 0.11693253 0.16194772
0.40209898 0.14122535 -0.20263822
0.19269218 -0.11176561 0.03961799
-0.15026461 -0.10785163 -0.11394245
-0.12312527 -0.11307483 0.0950122
-0.25081898 -0.09424189 0.14235535
0.36328931 0.10132057 0.10291419
-0.37776906 0.12945088 -0.2198022
-0.15407998 -0.11218250 0.089454
0.218469 -0.10661273 0.14611868
0.09324309 -0.08320527 0.18246174
0.24148753 -0.10477286 -0.1334861
0.21505135 -0.11057118 -0.02290035
-0.30379938 0.07079097 0.19591235
0.00909395 -0.10557026 0.15105116
-0.17362164 0.10231602 0.19839154
0.0389505 -0.04116633 -0.20642233
0.04203692 0.14075600 0.20019826
0.12041302 -0.11485487 -0.01769577
0.22787461 -0.10523342 0.00218628
-0.18984426 -0.07956167 -0.20172727
-0.034132 -0.11363140 0.11601755
-0.29825222 0.03968460 -0.21880294
0.32694686 0.04736038 0.16285592
0.18583092 -0.10755335 0.15305454
0.29226217 0.13089191 -0.22610014
-0.30634543 0.03260785 0.04489176
0.03349481 -0.02737365 0.18251812
-0.05287183 -0.10641610 -0.12505452
0.31900879 0.05292107 0.18316548
0.10420578 0.13632255 -0.24609997
-0.40946786 0.12767940 0.07471698
0.11720939 -0.00537373 0.1912289
0.32686728 0.13160997 -0.25569093
-0.27476784 -0.02536994 -0.01293061
-0.35289615 0.14111119 0.22308245
0.14649742 0.01636737 -0.21162528
0.18628103 0.01594947 0.19251586
-0.4052268 0.13609893 0.14145096
0.4065254 0.13602909 -0.00447934
0.36383058 0.11349627 0.07427069
0.11845087 0.09775877 -0.2232364
-0.35373405 0.10058213 -0.09933223
-0.38070287 0.13695117 -0.03053138
-0.14692067 0.13568465 -0.22180961
-0.09437633 0.04733915 0.18845248
-0.04187427 -0.00021230 0.19138034
-0.10336295 -0.00915888 -0.20957677
0.27649702 -0.00987546 0.16513676
0.26686509 -0.08713992 -0.04162986
-0.20851344 0.08666323 0.19733755
-0.1533479 -0.10338877 0.07820876
-0.41569148 0.13387094 -0.23094114
0.16103801 0.02787960 -0.21252955
0.26970915 -0.05288188 0.04334409
-0.36719112 0.10856269 0.11747804
-0.16522341 -0.10334736 -0.04470227
-0.04732863 0.06132680 0.18943245
-0.3128872 0.03004854 -0.13889344
0.10813673 -0.11003180 -0.07918143
-0.23233493 -0.11050151 0.04481767
-0.27623784 -0.02246601 -0.06514594
-0.35897187 0.09648057 -0.0694788
-0.17873893 0.13397024 0.19610722
-0.10306944 -0.10929155 -0.12716609
0.24087094 0.02172767 -0.21862241
-0.22052392 -0.10511776 -0.18669083
0.2644071 -0.08181644 0.16567369
-0.26153633 -0.05658668 -0.01601285
0.30204876 0.07185862 0.19049202
-0.41259711 0.14077014 -0.17731577
-0.26680253 -0.02635132 0.15461388
0.24494361 -0.09820264 0.04630663
0.32085993 0.05024291 -0.03439856
0.1205832 -0.11409614 -0.09307288
0.30554036 0.01880574 -0.04668476
0.03119143 -0.11193789 -0.07192352
0.07622879 0.04578688 0.1944435
-0.00503479 -0.10851357 0.09443207
-0.01369847 -0.03412512 0.181907
0.16102712 0.11837347 -0.21946207
0.0584437 -0.11240952 -0.15471133
0.0064897 -0.10860353 -0.02391584
-0.32086829 0.04057488 0.08671783
-0.02113273 -0.10161719 0.16579537
-0.27343542 -0.02779609 -0.16496591
0.27765281 -0.02186988 0.07847331
-0.08994306 0.01577672 -0.21150912
0.33277151 0.07779949 0.18786583
0.17675259 -0.10915334 -0.09809044
0.09174737 -0.07858567 -0.20818055
0.00305851 -0.11726128 0.03031141
0.32923912 0.05069015 0.17103036
0.10150898 -0.10451298 -0.13730523
0.03023252 -0.11089454 0.01141189
-0.30310632 0.02834357 0.04921132
-0.23639176 0.13634196 -0.24993534
0.39882 0.14121633 -0.15811317
-0.09537254 -0.11191113 -0.11269593
0.29980041 0.03578810 -0.21786524
0.00194064 0.09177833 -0.22267617
-0.22284241 0.07427112 0.1905729
0.26326068 -0.04924196 -0.08694581
0.06505617 -0.11349127 -0.04168953
0.1902586 -0.11183359 -0.0084538
0.04826654 -0.11358862 -0.07902305
-0.1896294 -0.05769124 0.17998821
-0.24330459 0.05804417 -0.2209881
-0.15182127 -0.07041506 0.18511605
0.07948597 0.02255518 0.18673809
-0.33045928 0.06581105 -0.11102872
-0.15806722 -0.10362483 -0.03486708
-0.359583 0.09748618 -0.16311488
0.33777997 0.06296605 0.04251114
0.0235514 0.14117383 -0.24371452
-0.34422113 0.07435298 -0.12212114
-0.03484143 -0.00278837 0.18459531
-0.32655573 0.09217264 0.19205658
0.06384447 -0.10574120 -0.14429808
-0.04124759 -0.11387911 -0.14987998
0.02886268 -0.11429820 -0.06566993
-0.26746739 -0.07291644 -0.05358341
0.22356444 -0.10062911 -0.03607953
-0.06780656 -0.06023818 -0.20455996
-0.11662687 -0.10476658 0.06510207
-0.37772891 0.13363326 0.12189258
-0.26098557 0.14111113 -0.24829982
0.29981361 0.02253448 0.0384922
-0.11371244 0.09019170 0.1915925
-0.33662348 0.06290989 0.01839857
0.17475325 0.06688345 0.19578859
-0.34925656 0.09389253 -0.18973415
0.34123965 0.08024431 -0.18215187
0.00665718 -0.11548190 0.08004867
-0.23638681 -0.10592131 -0.12851303
0.15712756 -0.10273288 0.09583029
-0.11321588 0.07134039 0.19619001
-0.17025487 -0.10211826 0.14660373
-0.05836166 -0.06272385 -0.20423221
0.2624944 -0.06504946 0.0564873
-0.26017771 -0.07735752 -0.17017814
0.26388429 -0.04422096 -0.18456029
0.33985323 0.06642918 -0.19638453
-0.12556607 0.14118440 0.2176669
-0.32077396 0.05160291 0.03864556
0.21102388 -0.11077625 -0.01059772
0.4115808 0.13518825 -0.06198449
-0.16669616 -0.11229092 -0.06408717
0.27277643 -0.01630971 -0.04587978
0.3651209 0.10434126 0.17465112
-0.22697396 0.14112454 -0.24730784
0.05522881 -0.11575594 -0.0892476
0.1579391 0.12576178 0.19493606
-0.0712686 -0.08546729 0.1755499
0.37053748 0.12290795 0.15260106
0.21976636 0.01160324 0.18556738
-0.2720801 -0.03305293 -0.04404555
-0.13243357 -0.11274238 -0.10419265
-0.35056816 0.08385713 0.0580381
0.07192081 -0.10520779 0.13495106
0.3105378 0.03665590 0.12258034
-0.07465275 -0.11319710 0.13485875
-0.00391374 -0.10910161 -0.00135563
-0.33508556 0.08571834 -0.2208828
-0.323946 0.04464192 -0.10546431
0.3714284 0.12415865 -0.14256569
0.26199407 0.03672956 -0.21336417
0.34512582 0.13225382 0.19580897
