# .PCD v0.7 - Point Cloud Data file format
VERSION 0.7
FIELDS x y z
SIZE 4 4 4
TYPE F F F
COUNT 1 1 1
WIDTH 1392
HEIGHT 1
VIEWPOINT 0 0 0 1 0 0 0
POINTS 1392
DATA ascii
0.14860183 0.06963242 -0.10812421
-0.07365596 0.08147233 0.06841962
0.21337554 -0.05833076 -0.29721959
0.17323749 0.03155656 -0.03082681
-0.10706053 -0.08431770 0.36163491
-0.04133085 -0.01314748 -0.20112708
0.1067013 0.07444222 0.09033919
-0.02522718 -0.06206400 -0.23189384
-0.08228384 0.09819600 0.1824034
0.00605644 0.08035744 -0.18505711
-0.1568624 -0.00600487 -0.08815477
-0.11039346 0.07013903 0.12692031
-0.1435157 -0.06206400 0.19497508
-0.11533257 0.08016552 0.16894539
0.28804556 -0.01925528 -0.11311964
-0.21185896 -0.05535670 0.17899042
0.08907814 0.03871668 -0.17879713
0.16037925 0.09022066 0.09589202
-0.17549428 -0.06079161 0.12659524
-0.1010424 -0.06206400 -0.2608377
0.25430973 -0.03664505 0.18681516
-0.10897526 -0.04097213 -0.1593821
-0.06898282 0.09307156 0.18955246
0.17251189 0.01000771 -0.03754082
-0.02569061 -0.00599105 0.21914159
0.0793488 0.06991500 0.15480624
0.16318813 -0.03469360 -0.07212289
-0.17685282 -0.06061314 0.10906374
0.15636117 0.05471156 0.10770872
0.19820236 -0.06140724 -0.30453942
0.17338658 0.03901507 0.04495519
0.26497665 -0.03106745 0.15855456
-0.0244692 0.07210539 -0.15512337
0.16007387 -0.06206400 -0.1423775
0.13949746 0.03776726 -0.12257857
0.30507977 0.00659487 -0.09989042
0.16290657 0.09149565 0.01691033
0.12455589 0.09819600 -0.12252725
-0.07058982 0.07796305 -0.09268062
0.00728604 0.08970100 0.06014239
-0.14620048 0.04110020 0.12605607
-0.12654597 -0.01070475 -0.14175152
-0.031339 -0.05395079 0.21823568
-0.17040007 -0.02968406 -0.04834176
-0.10480757 0.06991500 0.13074145
0.13002163 -0.06206400 0.19588532
0.07599539 0.08821522 -0.17023058
-0.20631667 -0.05652519 -0.05407541
-0.01665923 -0.07153509 -0.36304389
0.11426245 0.07050507 -0.09156134
0.14041172 -0.03664961 -0.12112643
0.15705145 0.05697444 0.10567873
-0.17214377 0.04924870 -0.03285062
-0.1060441 0.05271719 -0.16212191
0.0992691 -0.07057916 0.32554574
-0.12959897 0.08739850 0.15241126
-0.05403487 -0.06444331 0.28254816
-0.26673619 -0.03481214 0.09561644
0.0362246 0.09819600 -0.1927356
0.12758766 0.07283172 -0.02801239
-0.0808361 0.06991500 0.15284601
-0.17948603 -0.06359967 -0.30270153
0.0754432 -0.06259373 0.2668034
-0.21923825 -0.05454889 0.03387338
-0.12558636 0.07233661 0.05650978
-0.29861287 -0.00227283 0.04121365
-0.03830333 0.06183045 -0.20161258
0.043306 -0.06206400 -0.23145678
-0.07093169 0.00037344 -0.18758016
0.00847168 0.04055889 0.22204338
-0.13129469 0.03619738 0.14971917
0.05910135 0.07573054 -0.1211925
-0.26789839 -0.03434876 -0.17911943
0.14262168 -0.06206400 -0.19120839
-0.21517317 -0.04676436 0.27445787
0.12898432 0.07722374 -0.09470373
-0.12853669 0.00960887 0.15409753
0.04947178 -0.02146259 -0.19884942
-0.19956722 -0.05755749 0.02064824
0.06748044 0.04486525 0.20526849
-0.01042734 -0.06206400 -0.20645023
-0.16251088 -0.03464351 -0.07154208
0.13983595 -0.01062663 -0.12204079
-0.16829739 -0.06173709 -0.18439808
0.09571552 0.03439029 0.18809908
0.07909219 0.06991500 -0.1403402
-0.04432784 0.02315836 -0.20064648
0.19768014 -0.05797994 -0.11658222
0.0265211 0.08769107 -0.04566033
-0.08523204 0.08123313 -0.15377941
-0.13667811 -0.01299915 -0.12566532
-0.04322233 0.08737042 0.0438599
-0.17259475 -0.03864106 -0.02867768
0.17652893 0.01169236 0.01587879
0.11600983 0.07182095 0.09451815
-0.26882057 -0.03388716 -0.19989066
0.2633247 -0.03652111 -0.20436669
-0.1604036 0.07045377 0.09324884
-0.02133723 0.07043957 -0.17259995
-0.12301268 -0.06696641 -0.31806928
0.0546015 0.07140616 -0.19626095
-0.17601292 -0.06072348 -0.20841647
-0.30194058 0.00300336 -0.03048142
-0.30789433 0.01244323 0.02533398
-0.12766299 0.08562903 -0.10946389
-0.20525434 -0.05668767 0.00314098
0.07137811 -0.06004387 -0.18779597
0.16940382 -0.06170669 0.14829644
0.04630645 -0.08189451 0.35397985
0.04507982 -0.06506576 -0.29935656
0.28337828 -0.02186604 0.08810278
0.0152759 -0.06206400 0.22837771
-0.26208641 -0.03119245 0.1801391
-0.0665563 -0.07046968 -0.35255972
0.17705448 0.06677265 0.01101586
0.27274085 -0.03145891 0.00415924
0.07608793 -0.06472953 -0.29604621
0.1005395 0.07942720 0.04745699
-0.15866843 -0.06013878 -0.08284308
0.1434859 0.08568178 -0.07965455
-0.04818812 -0.08469761 0.36102404
-0.17951955 -0.06026280 -0.20198673
0.20988778 -0.05185465 0.2667665
-0.16066601 0.05001938 0.09247712
0.17585368 -0.06085920 0.07691635
0.15298666 0.02411740 0.11667064
0.19202686 -0.05873457 0.06720647
-0.06811996 0.01954371 0.20450507
0.16592069 -0.06206400 -0.22022171
0.08689278 0.04704434 0.19547341
-0.11829732 -0.06991957 0.32470938
0.01411865 -0.01042376 -0.205631
0.08958076 -0.08427189 0.35995419
-0.03934772 -0.06206400 0.23692148
-0.02001265 -0.06243467 0.26544938
-0.02063523 -0.07031949 -0.3510817
-0.12768859 -0.06691311 0.30455599
0.05862542 0.07914536 0.20973656
-0.05065966 -0.03193851 0.21331498
0.14898158 0.02239713 -0.10752123
-0.24661405 -0.04295030 0.06096256
-0.16344546 0.03678126 -0.06879414
-0.1862562 -0.05931540 0.21857104
-0.15612913 0.03708086 -0.09031138
0.08361132 0.03964759 -0.18162317
0.02355611 0.07342361 -0.14857155
-0.11363548 -0.06206400 -0.26281037
0.04310472 0.08219378 -0.08236841
-0.01522015 0.09257795 0.22082087
-0.2319507 -0.04967886 0.11801737
-0.12883546 -0.06206400 -0.17172921
0.00700608 0.08625672 -0.06141234
0.23578334 -0.04832127 -0.04064527
0.23899242 -0.04324016 0.23914651
0.08854343 0.09245001 0.17680097
-0.20551968 -0.05437210 0.26308808
0.06782224 -0.02066687 -0.18959023
0.0002334 -0.06206400 0.25625286
0.04235328 -0.07242075 -0.37176814
0.08685836 -0.05766655 0.19549077
0.23288897 -0.04610219 0.24317754
-0.09831713 0.04874823 0.18485088
0.13478599 0.00151128 0.14556558
0.06461483 0.03889339 0.20671442
0.13895733 -0.02718319 -0.12343551
-0.0356502 -0.00751323 -0.20203803
0.15758046 -0.06206400 -0.22497552
0.16412858 -0.06744471 0.3238623
0.12610567 0.04308833 0.15934595
-0.14580731 0.00618231 0.1266795
0.09978678 -0.06206400 -0.2018001
0.26962243 -0.03394548 -0.18871291
0.13799647 0.00706088 -0.12496131
0.21149457 -0.05586692 0.03701419
0.17430056 -0.02495974 0.03649809
0.06638824 0.08103065 -0.07282559
0.0125147 0.08257194 -0.09000603
-0.19582673 -0.05812048 -0.02044285
-0.05560052 0.07265159 -0.16317147
0.13524121 0.06991500 0.06225265
-0.29305455 -0.01108574 -0.0370629
-0.09670697 -0.06206400 -0.19282066
0.07915313 -0.02250205 0.19937868
0.20366322 -0.05706478 -0.11169717
0.24750229 -0.03307060 0.23877475
0.24373377 -0.04485570 -0.27248404
-0.05533795 -0.06206400 -0.25373681
-0.29553567 0.01138151 0.15038536
0.09737095 -0.01559637 0.18655173
-0.10778821 0.07536797 -0.05110408
0.02810974 0.08970100 -0.01706351
0.16829468 -0.06494733 0.29564362
0.04164538 -0.06720789 0.30608194
-0.16778463 -0.06180446 0.1411622
0.13040595 -0.02800431 0.15251911
-0.12731544 -0.05494960 -0.14052983
-0.06927764 0.09396719 -0.18841494
-0.00544887 -0.02121135 -0.20688114
-0.01168819 -0.07401453 0.33417841
0.1513592 -0.06206400 0.23221389
-0.12224348 -0.06206400 0.16937297
0.10408394 -0.06496685 -0.29838279
-0.22856749 -0.05123174 0.05740936
0.17661826 -0.06075903 0.21429227
0.04978924 -0.06206400 -0.24013616
0.21325753 -0.05559726 -0.02465703
0.17316996 0.06264632 0.04695959
0.09598714 0.07250223 0.14830679
0.12158979 0.07534911 0.01444717
0.30532899 0.00699003 -0.12121046
0.28400394 -0.02247798 0.05472244
-0.15830015 -0.00496985 -0.08392621
0.1345535 -0.06206400 0.17598653
0.10430443 -0.06206400 -0.26235507
-0.01602426 0.07939089 0.1360364
-0.02236469 -0.05781604 0.21967501
0.28137289 -0.02457592 -0.07022945
0.30359219 0.00423627 -0.11573266
0.17521222 0.08203262 0.02806243
0.03275933 -0.06571605 0.29338244
-0.04817371 -0.07782310 0.34374888
-0.11426448 -0.07033988 -0.35128234
0.15820464 0.02431123 0.10228785
-0.08162586 -0.06385616 0.27754996
0.03588533 -0.04185896 0.21764671
0.1146512 -0.06842489 0.31747284
0.03404531 0.07149411 -0.17167019
0.28152752 -0.01399063 0.16345383
-0.08631055 -0.06402605 -0.28912014
-0.15621394 0.00489644 -0.09006194
0.10927176 0.04394153 0.1754279
0.17854082 -0.06050633 -0.09506623
-0.02712488 0.05268123 -0.20340516
-0.12866386 0.08693530 -0.11019636
-0.19660641 -0.05687577 0.24941793
-0.08899937 -0.06206400 0.19621647
0.29988664 -0.00163928 -0.10567459
-0.25646866 -0.03890595 -0.15812501
-0.28482076 -0.02112896 -0.0007535
-0.26831629 -0.03418214 -0.06735198
0.11168222 0.07716199 -0.02486066
-0.20298109 -0.05899822 -0.2893795
-0.25733921 -0.03855885 0.08022122
0.0644113 0.07315034 0.14944649
0.16529624 -0.06206400 0.25844765
0.24301701 -0.04500192 0.06712217
-0.1377681 -0.06206400 -0.22211054
0.06044251 0.07417423 -0.12908458
-0.05563486 0.06867189 -0.19529866
-0.10616238 0.00782269 0.17751755
-0.07102405 0.08072490 -0.05768048
0.10784292 0.03334082 -0.16125745
-0.05763402 0.07367052 -0.13216609
-0.19867022 -0.05769468 0.0626359
-0.05804741 0.08516804 0.04285172
-0.10569312 0.07675880 -0.0382994
-0.14516106 -0.06206400 -0.17599822
0.13447831 0.01848320 0.14605401
0.01770691 -0.06337714 -0.28273136
-0.00826131 -0.00644757 -0.20643014
0.05412802 -0.06206400 0.25969316
0.00828955 -0.06206400 0.2481947
0.15682077 -0.06440446 -0.2928458
-0.11888903 -0.06421194 -0.29095037
0.2022497 -0.05658354 0.19767847
0.0901656 0.05456518 0.19328667
-0.08844007 0.09226461 -0.16056334
-0.16937878 -0.06159503 0.08887683
0.12415873 -0.06978411 -0.34581209
0.16005678 -0.00195382 0.09684142
0.23135857 -0.05035169 -0.14909902
0.0881327 -0.06206400 0.22431633
0.22819296 -0.05181213 -0.23398406
-0.17331344 -0.06154755 0.26844402
-0.05777436 -0.03456054 -0.19421901
0.15334298 -0.06817347 -0.32995331
-0.06523444 -0.02980922 0.20596101
-0.1938657 -0.06349578 -0.32037146
-0.16981293 -0.04182012 -0.05006825
-0.16724516 0.09017309 -0.05762015
0.00877242 -0.06680989 -0.31652826
-0.24248787 -0.04484378 -0.03517018
0.00905888 -0.05087759 -0.20644239
-0.19232389 -0.05858065 -0.06444323
0.13390321 0.09306406 -0.13146026
0.06799062 0.07024740 0.1619815
-0.30133168 0.00203793 -0.07162066
-0.07893359 0.07729317 0.10740051
0.17274665 -0.02361365 -0.03536852
-0.0477495 0.07307690 -0.14057413
-0.03741464 0.09819600 -0.18975412
0.17376403 -0.02870966 0.04146263
-0.05441489 0.08637886 -0.17852945
0.29357848 -0.01164187 0.03434711
0.07806766 0.08002237 0.09061477
-0.28712997 -0.01928765 0.06071775
-0.17599495 -0.00920126 0.00278464
0.00673472 0.08970100 0.0197341
0.15403997 0.07469030 0.11453449
-0.12797068 0.09819600 0.13995025
-0.07442643 0.01813508 -0.18581685
0.11101333 0.00174327 0.17380136
-0.02132847 0.07893773 0.13811921
0.04356669 -0.00335890 0.21641475
-0.11401061 0.07500395 -0.03776839
0.12836762 -0.06206400 0.21904155
0.16034756 -0.02487634 -0.0804766
-0.17380323 -0.06101371 -0.06797225
0.16261239 -0.05946818 0.08932569
0.11483275 -0.06779008 0.31103792
0.12931665 -0.03678459 0.1542484
0.17658584 -0.04783627 0.01535101
-0.17447625 -0.00504452 -0.01126804
-0.06284997 0.07147201 0.20716414
0.16511628 -0.06986508 -0.34660934
0.09940337 -0.07108877 -0.35865186
-0.17443934 -0.06093021 0.14930297
0.175585 -0.01542823 -0.00910504
-0.11312697 0.08954723 -0.13748765
-0.07522451 0.08187153 -0.0295734
-0.06807436 0.08371646 0.04143488
-0.12530642 -0.01675301 0.15922569
0.14273477 0.08216777 0.08787078
0.0048894 -0.08507181 0.36196445
-0.22118812 -0.03596866 0.29668923
-0.22185204 -0.05414913 -0.16684428
0.13838168 0.03184693 -0.12435
-0.11566579 -0.01769408 -0.15312804
-0.06968139 0.07976638 0.09565294
0.16401001 -0.06206400 0.22132855
-0.01892263 0.07042902 -0.17297669
0.24443163 -0.04435278 -0.20127432
-0.10058539 -0.06298976 0.27017464
-0.1401444 -0.06520445 0.28902738
-0.12549125 0.06991500 -0.07579321
0.02141985 0.07730177 0.14811102
-0.11346319 -0.06206400 -0.1933863
0.08473955 0.07024575 -0.13160622
0.11541268 0.07457501 -0.0473047
0.27940733 -0.02614321 -0.1588246
0.18016952 -0.06029237 0.12620581
-0.15627667 0.06980682 0.10538593
-0.09750931 -0.06445573 0.28265381
-0.1934356 -0.05843464 -0.03129565
0.31169964 0.01709090 -0.07266458
0.06991728 0.07398492 -0.12217328
-0.16389956 0.00839271 0.08296739
0.07213447 0.07285833 0.14386068
0.30901648 0.01283667 -0.08497215
-0.10870793 0.09819600 -0.14597463
-0.10809523 -0.07038180 -0.35169489
0.25525098 -0.03974005 -0.13129785
-0.14353939 0.08296619 -0.07006695
0.18681722 -0.05941904 -0.14446848
-0.24427833 -0.04402215 -0.08382339
0.13294212 0.07165824 0.03518691
0.28762157 -0.01959336 -0.17285867
0.17396315 -0.04154826 -0.02411215
-0.11437462 -0.06582750 -0.30685624
0.12845735 -0.02886728 0.15561257
0.06787731 0.00406664 -0.18956229
0.27440854 -0.03012914 -0.09436847
-0.03970375 -0.08080862 0.35125112
-0.09718623 -0.06195208 -0.17040198
-0.19388697 -0.06219953 -0.30763698
-0.14830072 -0.06206400 0.22723941
-0.08905333 -0.06206400 0.25166129
0.19727327 -0.06152686 -0.3043107
0.16936443 0.05981140 0.06946867
-0.0944084 0.05730776 -0.17299854
-0.07161326 -0.06969250 -0.34491
-0.12019486 -0.06230292 0.26432784
-0.16885876 -0.06540520 -0.30666296
-0.04436245 0.08671334 0.05321362
0.09887008 -0.06931031 -0.34114688
0.16920636 -0.06173266 0.23425305
0.16491329 -0.05105833 -0.06704942
0.30991531 0.01426179 0.00413671
-0.18389983 -0.05968735 -0.11182094
-0.16164588 -0.06206400 0.1660296
0.14478553 0.08435735 -0.07222854
-0.01408291 0.06991500 0.18530283
-0.18434002 -0.05962952 -0.21593142
-0.01485444 -0.06206400 -0.23758029
-0.14476166 -0.06206400 0.14033593
0.16174614 -0.06206400 0.23617071
-0.16568824 0.08608841 -0.06219893
0.16839234 -0.02462840 -0.05681853
-0.17017637 0.09819600 0.00768615
-0.18567794 -0.05945375 0.10459723
-0.17961153 -0.06025088 0.20218128
0.09076103 -0.07075083 -0.35532636
-0.10762057 0.07416244 0.08560776
0.23645699 -0.04801215 -0.17465558
0.17915114 -0.06042615 -0.09925987
-0.16163301 -0.06206400 0.15400582
-0.00039711 -0.06206400 -0.21616673
0.15768294 -0.06206400 0.21173113
-0.0584295 -0.06206400 -0.22499865
0.12309634 -0.06523902 0.28932172
0.2413476 -0.04451640 0.17013263
-0.0574454 0.08583165 0.01823033
-0.12076753 -0.06206400 -0.15086939
-0.17201496 0.05028556 -0.03404249
0.16466788 0.05888515 0.08328046
0.16732887 -0.05679132 0.07545373
0.30275348 0.00290646 0.03451443
0.22370033 -0.04997380 0.26037587
-0.03453168 0.07301247 -0.14761531
0.10770703 -0.06206400 0.20030664
-0.14776343 -0.00565375 0.12357442
0.20523843 -0.05682384 -0.11002302
0.24231295 -0.04532499 -0.10039291
0.01874044 0.08970100 0.00263679
-0.1671114 0.08246833 0.07352159
0.03118133 0.09667209 -0.20020811
-0.01438674 -0.03321673 0.22095453
-0.13595575 -0.07025850 -0.35048162
-0.07334192 0.07579202 -0.10465834
0.13209724 0.01161046 -0.13432692
0.10706372 0.01285302 0.17749176
-0.13304276 0.07739985 -0.08680842
0.04165397 -0.06206400 -0.22670954
0.2080944 -0.05769479 -0.28296354
-0.00148376 -0.06229789 0.26428497
0.23070427 -0.05065193 0.10019977
0.0186733 0.07257676 0.17036595
0.00499107 0.01905230 -0.20709471
-0.13178057 -0.04949711 0.14894776
-0.11071456 -0.06286683 0.26912818
0.31266415 0.01928585 0.03269468
-0.13846411 -0.06206400 -0.21380274
-0.0685568 0.05059852 -0.18877865
-0.22241189 -0.05405650 0.13793703
-0.05380171 -0.05396889 0.2117296
0.07172971 -0.07014482 -0.34936288
0.30994765 0.02403191 0.10698715
0.05305982 0.04885627 0.21254485
-0.25752143 -0.03848620 -0.00683547
-0.17509745 -0.06084375 -0.10203905
0.01597028 0.07638387 0.15322252
0.10608666 0.05561634 -0.16289905
-0.17173781 0.00206544 -0.03660699
0.02639619 0.08174198 -0.09436701
0.22706037 -0.05036502 0.20808025
0.09733579 -0.02357825 0.18658458
0.28962825 0.00328738 0.16933084
-0.03510984 -0.06638627 0.2990878
0.07734421 -0.06206400 -0.23139374
0.08400863 -0.06955780 -0.34358373
-0.03178499 -0.06953565 -0.34336563
-0.0774134 0.08279505 0.17837496
0.14751673 -0.06453838 -0.29416434
0.08812219 -0.07144156 -0.36212346
0.05190106 0.01124466 0.21312954
-0.31434766 0.02500209 0.05006321
0.13982688 0.09653026 -0.11792106
-0.06953598 0.06993890 0.16233171
0.16309621 -0.06206400 -0.14363185
0.21855863 -0.05478642 0.06999746
-0.10223719 0.01690964 0.18118674
0.2576632 -0.03877831 -0.10704318
0.02829601 -0.03844675 0.2188639
0.29584452 -0.00804869 -0.16426993
-0.06270156 -0.03028270 -0.19173285
0.17146621 -0.05825960 0.06272454
0.17177842 -0.03468573 0.05983562
0.09771489 0.07449109 -0.13422375
-0.16943078 -0.06621205 0.31682772
0.14427661 -0.03860132 0.13049767
-0.30080994 0.01299701 0.1149425
0.1979474 -0.05793906 -0.01977502
-0.16769903 -0.06181562 -0.07037011
0.11083375 0.01520169 0.17396795
-0.16855075 -0.04625803 -0.05377976
0.07127645 -0.08314257 0.35711612
0.27979477 -0.02583428 -0.07945738
-0.14201592 0.06991500 0.03485595
0.04994646 -0.06206400 -0.2431072
0.24132073 -0.04578030 -0.07563028
0.09885646 -0.04716854 0.18516321
-0.27469413 -0.02457115 0.13937497
-0.11722869 0.09564615 -0.14968782
0.3118211 0.02094313 0.070785
0.00101686 0.07574074 0.15839532
0.17242553 -0.02452262 0.05384792
0.16931534 -0.06171831 0.09779453
0.11858229 0.03237799 -0.15121923
-0.10617501 -0.01339601 -0.16199961
0.1762014 -0.06081367 -0.10152557
-0.10640011 -0.06206400 0.25395712
-0.07119628 -0.06432080 -0.29202212
-0.11485863 0.04920046 -0.15388243
0.01111515 -0.06206400 0.24390412
-0.03372593 0.07765203 0.19301152
-0.23815494 -0.04729645 -0.27514702
-0.17556321 -0.06808036 -0.3417174
0.3114008 0.02538887 0.10363453
-0.00993792 -0.06206400 0.2382089
-0.01801514 -0.06769699 -0.32526206
-0.06693206 0.07456983 -0.18959845
0.10614624 0.09815651 -0.15749652
0.24969572 -0.03926730 0.1994722
-0.29203771 -0.01269797 0.0032025
0.22967543 -0.05112404 -0.07206665
0.11765149 -0.06848798 0.3187069
0.17562101 -0.06088997 0.19329016
-0.14870839 0.07301812 0.12207491
0.20881449 -0.05744488 -0.28159315
0.08181273 0.08966419 -0.16754239
0.00880774 0.08970100 0.03424906
0.03913619 -0.06673010 0.3020147
0.1914796 -0.05880651 -0.09326486
0.16712939 0.00518594 0.07604118
-0.03616202 -0.06206400 -0.23954838
0.0819648 -0.06662671 0.30113455
0.12127276 0.07507991 -0.00839957
0.06657456 -0.06425851 -0.29140886
-0.15362373 0.08388643 0.05565012
0.21863563 -0.05477464 0.12880195
-0.30555018 0.00872650 0.03117837
-0.00179196 0.08128574 0.12605296
0.09212131 -0.00124630 0.19145864
-0.07526152 0.08029176 0.08062662
0.00232224 0.00978978 -0.20752269
-0.09106838 0.09819600 0.18236302
0.17668179 -0.06075746 -0.25767442
0.29928647 -0.00259094 0.04787847
0.04115448 -0.05302327 -0.20129552
0.02578027 -0.06206400 0.22582463
-0.17095175 0.05838646 -0.04388052
-0.26563367 -0.03525174 -0.2230017
-0.15205485 0.07889409 -0.01748662
-0.2595075 -0.03769432 0.01520473
0.23171305 -0.05018902 -0.17265521
-0.21647096 -0.05497214 0.07740922
-0.17329746 0.08764409 0.03768343
-0.19090818 -0.05876664 -0.11499512
0.30063333 0.00466749 0.08531381
-0.06365256 0.09501190 0.20579014
-0.00521793 0.08428671 -0.20691818
0.01236525 0.09023679 0.22141892
-0.15510285 0.00918762 -0.09332974
0.07495359 -0.07112171 0.32690909
-0.0138563 -0.06698079 0.3041487
0.03911264 -0.01934829 -0.20162295
-0.27554712 -0.02214039 0.15954542
0.0776872 0.08393570 0.04523906
0.26612379 -0.03540513 -0.09779315
0.03083888 -0.06867049 -0.33484707
0.13946089 0.06130575 0.13814376
-0.15012867 0.09362427 -0.10431246
-0.11406659 -0.06579089 -0.30649575
0.00292525 -0.04502168 0.22293293
-0.22475439 -0.05298141 0.11010367
-0.07678762 -0.06949427 -0.34295824
0.17696986 0.00333661 0.01179885
0.02150147 -0.06797275 0.31259288
0.14779436 -0.04959805 -0.10940578
0.29898536 0.00794802 0.1215613
-0.14022024 0.08999021 -0.12004284
-0.16445474 0.09798840 -0.05531303
0.08085373 0.00524354 -0.18301459
0.15706316 -0.03262702 -0.09013556
-0.15675225 -0.05558602 0.10398724
-0.16181442 0.02238602 0.08909968
-0.01096275 0.08970100 -0.02214736
0.08103658 -0.06206400 0.20861252
-0.2657599 -0.03520140 -0.10584996
0.01419729 0.08970100 0.010926
0.17681946 -0.06073260 0.2177576
-0.29997905 -0.00010671 -0.12407914
0.00192588 -0.08201862 0.35429172
0.28724584 -0.01989296 -0.08138544
0.00774735 -0.06381435 0.27719403
0.05679549 -0.06960877 -0.34408562
-0.16750107 -0.06184173 0.18680251
-0.18696711 -0.05928452 -0.00285934
0.24453939 -0.04430333 -0.18192642
-0.17853605 -0.06039209 -0.0220783
0.19250071 -0.05867238 0.09656786
-0.11770171 -0.06416308 0.28016262
0.12516127 0.07378609 -0.01733367
0.17655996 -0.04284114 -8.367e-05
-0.23509021 -0.04693541 0.18111723
0.14691414 -0.04980885 -0.1108032
0.21006722 -0.05608524 0.10073923
-0.09294163 -0.07128491 -0.36058198
-0.09506357 0.07342704 -0.09575942
0.29264074 -0.00033425 0.14558453
-0.15110757 0.01671041 -0.10275826
0.08239322 -0.06206400 0.24257144
-0.00802494 0.00324321 -0.20646804
0.06256155 -0.06206400 -0.20794889
-0.1747975 0.07736872 -0.00829549
0.11721907 -0.04530874 -0.15249346
-0.10439147 0.09239301 -0.14565303
0.21104393 -0.05593585 0.12422545
0.14735672 -0.06308680 0.27100065
0.09819953 0.06991500 -0.12531245
0.17308926 0.05623055 -0.03219839
-0.07204302 -0.08109768 0.35197751
0.20662123 -0.05661233 0.13727573
-0.17936997 -0.06028273 0.22000807
-0.04446901 0.04146817 0.21612986
0.13254632 0.07251058 0.00671813
0.21819178 -0.05484253 -0.0028687
-0.01069258 0.08909085 -0.0324546
-0.05188477 -0.06206400 -0.26278341
-0.08152439 -0.01107590 -0.18223496
-0.09837838 0.08597963 -0.14745334
-0.17489784 0.03881065 -0.00736702
-0.22108306 -0.05426674 -0.17346017
-0.03016623 -0.03789937 0.21842378
-0.18548021 -0.06007073 0.28845416
-0.07605787 -0.04050968 0.20049985
0.28421228 -0.02231185 -0.03262968
0.04065161 0.00341999 0.21688228
0.02640249 0.05841438 0.21916759
0.09252698 0.07548862 -0.17557349
0.01160196 0.07245259 -0.15558838
-0.3129684 0.02048834 -0.04444428
0.11924394 0.08170083 0.13292598
0.10944446 0.07012336 0.11721842
-0.17248233 0.00672577 -0.02971794
0.00078854 -0.01489807 0.22327562
-0.15726623 0.06674571 0.10247569
0.10967533 -0.06206400 -0.25715508
-0.05655879 0.06991500 -0.1543965
-0.12923151 0.06763371 0.15299456
0.10569306 -0.07208220 -0.36843078
-0.22519762 -0.04967793 0.23804318
0.06688334 -0.03245377 -0.19006407
0.15705163 -0.02060742 -0.09016949
0.1621596 0.09080255 -0.07514833
-0.30469241 0.01305229 0.08786323
0.15000085 0.07625367 -0.02150068
0.25392893 -0.04026714 -0.19437287
-0.17067531 0.01178969 0.0619464
-0.27154962 -0.03171107 -0.21464905
-0.09491599 -0.03170605 -0.17252409
0.30490152 0.00677344 0.04519176
0.01258308 0.09639906 0.20837732
0.00852768 0.08856661 0.08057887
0.02246417 0.08970100 0.04367743
-0.09084288 -0.05301251 0.19183734
0.2511644 -0.04136934 -0.04929608
0.05503952 -0.02806120 0.21154593
-0.19798465 -0.05779954 0.16059724
-0.26709939 -0.03466733 0.06429152
-0.05938649 -0.06206400 0.24362543
-0.15790903 -0.04547762 0.1005852
-0.07619858 -0.06320092 0.27197217
-0.17175065 -0.02226120 0.05199624
0.03198244 0.08097080 -0.0980087
-0.159652 -0.06206400 -0.10098583
-0.30231829 0.00360223 -0.13805036
-0.15369148 -0.01983683 -0.09748072
-0.17054344 0.09324195 0.06316666
0.07212904 0.09506055 -0.1863792
0.02012172 -0.06298511 -0.2788717
-0.14394864 -0.06206400 -0.11974963
0.22855816 -0.05163672 0.12246469
-0.17242176 0.09819600 0.00891354
0.23146062 -0.05030486 -0.17752079
-0.17495348 -0.06086483 0.24008194
0.19521842 -0.05831532 0.08501439
-0.21171339 -0.05463399 0.1980843
-0.1748442 0.00212152 -0.00786338
-0.01558258 0.07740464 0.22076274
0.10459294 -0.05657568 -0.16429544
0.01168847 -0.07668630 0.34089223
-0.24487594 -0.04374791 0.07312683
0.11616177 -0.06206400 -0.15700447
0.17482027 0.03407907 0.03168921
-0.05859808 -0.06206400 -0.19508318
-0.17250023 0.09155004 -0.02955233
-0.14092902 -0.06206400 0.22885204
-0.10904061 0.07748089 0.01971296
0.15531167 0.09784462 0.10061938
0.11501247 0.08961696 0.15201017
0.30390221 0.01096483 0.09126514
0.07749177 0.09371510 -0.17013218
-0.30323547 0.01604295 0.11069675
0.03307832 -0.06116837 0.2180969
-0.17205312 -0.06043318 0.04919947
0.0745142 -0.02806191 0.20171939
-0.13076475 0.05255825 -0.13505391
0.07350162 0.07273123 -0.12663125
-0.17004384 -0.01435231 0.06489725
-0.21459923 -0.05525841 -0.18677468
-0.1366919 0.06991500 0.06337311
0.16413737 0.04516673 0.08484074
-0.11576981 0.08833505 -0.15303068
-0.12195453 0.07292429 -0.04276531
0.1073451 -0.07015176 0.32467004
-0.00192277 0.07113089 0.17958251
-0.02016392 -0.04838261 0.22002797
0.10399917 -0.06279430 -0.27699309
-0.09301725 -0.06453708 -0.29415148
0.1378186 0.06991500 -0.03505987
-0.29280741 -0.00484874 0.12268265
-0.03166455 -0.06533797 -0.30203663
0.04506928 0.07552017 0.14786564
-0.14695605 0.03168763 -0.10934914
-0.14530712 0.04778392 -0.11196696
-0.01580034 -0.05993207 0.22072782
0.1312719 -0.02228391 0.15114439
0.05239498 0.07521828 -0.16775916
-0.31676653 0.02730679 -0.01677436
0.15647732 -0.01768346 -0.09185846
0.02197092 0.07844523 -0.12124215
-0.30292848 0.00456971 -0.1139903
-0.24229738 -0.04499512 -0.26208144
0.25041901 -0.03838278 0.21255967
0.01397632 0.07022319 0.1819858
0.16661264 -0.06206400 0.12048879
0.30409469 0.00503299 -0.06985405
-0.1568234 0.01723563 0.103778
-0.1744333 -0.02562212 0.02717345
0.09673451 -0.07081659 -0.35597345
-0.17256859 0.04882626 -0.0289197
-0.25231525 -0.04056198 -0.15697389
-0.05750968 0.08572340 0.02397431
0.02869853 0.08970100 -0.01775059
-0.14771651 0.05138218 -0.10814188
-0.16698846 0.03213245 0.07388277
-0.13187322 -0.06206400 0.15879576
-0.12751529 0.07126211 -0.04907798
0.04967834 -0.06654118 0.30040648
0.18744589 -0.05933632 0.03764887
0.13991856 -0.07147187 -0.36242177
-0.06637156 -0.06305088 0.27069495
0.10480456 0.07372984 0.14166676
-0.1334355 0.07094996 -0.03165387
0.15323977 -0.05154885 0.11626885
0.09883046 0.07081425 -0.11362741
-0.06634432 0.09726091 0.20188593
0.2253578 -0.05311904 -0.23952792
-0.11258404 -0.00100930 0.17151466
-0.21423323 -0.05232229 0.25289022
0.23383656 -0.03101499 0.2763726
0.00375204 -0.00103073 -0.2072934
-0.17549763 0.01803792 0.01732512
-0.18703009 -0.06545474 -0.33077247
-0.23065091 -0.05027567 -0.12961037
-0.11325165 -0.01872102 -0.15538468
0.13948584 -0.06678889 0.30582491
0.15841699 -0.06855884 -0.33374771
0.07418753 0.08114853 -0.06064994
0.00941774 -0.06206400 0.24166989
-0.1544935 0.08414030 0.04950537
0.00204239 0.08914882 0.07577045
-0.25551744 -0.03928522 -0.04184537
-0.15326684 0.07400917 -0.09872964
-0.07909013 -0.06206400 0.25591815
0.15907094 -0.04566813 0.0997406
0.10984805 0.07401653 -0.07045337
0.26749808 -0.03485720 -0.00550966
0.18537372 -0.05928621 0.23938506
0.14840355 0.07512772 -0.02753352
0.28503446 -0.02165627 -0.11884389
0.06090221 -0.06793982 -0.32765284
-0.063648 -0.06206400 0.24906913
-0.15285878 0.04497194 0.11543778
-0.17338069 -0.05407935 -0.02140369
-0.24108931 -0.04548557 -0.08052725
-0.13184412 0.07035485 0.06387192
0.08926768 -0.06206400 -0.19559188
-0.24455084 -0.04389709 -0.21836533
-0.16489548 -0.06486645 -0.29739425
0.29150843 0.00832673 0.17001654
0.05553255 -0.06206400 0.23897914
0.03921167 0.08970100 -0.01381083
-0.17178521 0.09562696 -0.02435574
0.12073107 -0.01773340 0.16471718
-0.03020579 0.08418169 0.0964626
-0.13772846 -0.01379842 0.13950542
0.16143334 -0.03534558 0.09279365
-0.29515543 -0.00775472 -0.07013855
0.08811148 -0.06206400 0.26070083
-0.13972412 -0.07102228 -0.35799759
0.05606063 0.09741488 0.19649615
0.12876963 0.05581851 0.15511681
-0.24051637 -0.04574848 0.0296418
0.09682646 -0.03616703 -0.17155477
-0.31726155 0.02822730 0.03678842
0.1166205 0.08745897 -0.15305294
0.05451971 0.07919765 -0.1006268
0.25025557 -0.04173169 -0.00542176
0.05401382 0.08612432 -0.17884186
-0.25263851 -0.04043309 -0.17591162
-0.17527031 0.08795148 0.01942848
-0.10906395 -0.06206400 0.2121107
-0.17525689 -0.06082266 0.07170196
-0.01386625 -0.06614015 -0.30993434
-0.04868807 0.07436391 0.18354204
0.24140549 -0.04500046 0.15377768
-0.08881669 -0.06829216 0.3153119
0.10693102 0.07865884 -0.00814282
0.12792194 0.07274223 -0.02802626
-0.29699223 0.00566558 0.12357731
-0.28704211 -0.01465667 0.11934257
0.15833295 -0.06206400 -0.2050133
0.05686123 -0.00721755 -0.1951211
0.20401675 -0.05701070 -0.14042964
0.29521614 -0.00904509 -0.03398651
0.05896944 -0.06473497 0.28503087
-0.17259347 -0.01067863 0.04419754
0.05081105 0.07307789 -0.13998097
0.28930444 -0.01825148 -0.01290247
0.13480855 -0.06376771 -0.2865767
0.09353031 0.07418734 0.11309278
-0.06862456 -0.08499368 0.36176809
0.02182755 -0.06206400 -0.23601699
0.01898598 -0.06889904 0.32047811
0.2933662 -0.01197846 -0.06591131
-0.28595818 -0.02022201 -0.02584202
-0.00088074 0.08260818 -0.08988916
0.25976224 -0.03794144 -0.12661315
0.17410154 -0.06723577 -0.33036357
0.31221593 0.02227147 0.07857615
-0.14511206 -0.06774565 -0.32574119
-0.10762683 0.08025465 -0.13164021
0.00485027 -0.06846987 -0.33287176
0.15482118 -0.00528463 -0.09672894
-0.09252162 0.07207287 -0.11153847
-0.05794234 0.07381004 0.20964037
0.13972339 -0.06206400 0.18359686
-0.12508683 0.04532611 -0.14406823
0.13057377 0.04097393 0.15225267
-0.12213767 -0.05066814 0.16258423
-0.03842629 0.02461330 -0.20159286
0.23894147 -0.04687208 -0.02877936
-0.10918289 0.07316142 -0.11879055
0.1775792 -0.06063266 -0.12808019
-0.15478355 -0.06113892 -0.09426884
-0.17468157 -0.06089838 -0.09277538
-0.02715022 0.08457027 -0.06427289
0.11826977 0.07514112 -0.03202598
0.19213268 -0.05872073 -0.19042842
-0.06600082 -0.06795212 0.31241725
0.17251805 0.02070757 -0.03748383
0.05030781 0.08045130 -0.19842746
0.02008553 0.08712464 0.20533589
-0.05677763 0.03725050 -0.19472205
0.1139823 -0.05170857 0.17102512
-0.04141044 0.08689619 0.05683249
0.01153268 -0.08695740 0.36670309
0.15245157 0.09643893 -0.09737677
-0.18021638 -0.06017126 -0.15780398
0.29348794 -0.01178543 0.02664991
-0.15866289 -0.06206400 -0.24334384
-0.14076258 0.06746095 0.13468893
0.02868457 -0.07023176 -0.35021846
-0.09141413 -0.01642522 -0.17579747
0.12154031 0.09491174 0.16295838
-0.15731809 0.09593977 0.0974479
0.19369029 -0.05851612 -0.04493567
0.16542681 -0.06206400 -0.10133074
0.15151088 0.01642295 -0.10350563
0.03798849 -0.01279971 0.2173094
0.17974602 -0.06034800 0.17975256
0.24286286 -0.04507265 0.08562808
0.1302318 -0.06206400 -0.24208847
0.14479678 -0.00922471 0.12967191
0.05039131 0.07002942 0.21389133
-0.01041442 -0.06273944 -0.276453
0.03343467 -0.06289552 0.26937241
0.29214972 -0.01390739 -0.15848867
-0.13433984 0.08803409 -0.10313896
0.1081731 0.06013447 0.17645483
0.27088353 -0.03293990 -0.12582969
0.21435653 -0.04276690 0.29152682
0.17506987 0.03245032 0.02937961
-0.16272482 -0.06225054 -0.27163953
0.15695311 -0.03646894 -0.09045923
-0.04214346 0.06991500 0.17717905
-0.00259608 -0.06206400 0.24360085
0.15265978 0.05615960 0.11718957
0.11144778 0.07441774 0.07860844
-0.22286324 -0.05339460 0.17282747
0.17905229 -0.06316168 0.31293367
0.02799222 0.03017889 0.21891263
0.11704779 0.03587485 0.16816032
0.13494263 0.00769473 -0.12980956
0.24743915 -0.04297271 -0.08503418
0.04047146 0.07554212 0.15007884
-0.17382027 -0.03250148 -0.01733782
0.17774056 -0.06061124 0.04015541
-0.11229076 0.06721291 0.17178876
-0.15023649 -0.00273648 0.11964875
-0.25542425 -0.03932237 -0.17730971
0.08827844 -0.06276018 -0.27665718
0.17310155 0.00826471 -0.03208466
-0.14966513 0.07279370 -0.10504833
0.15212299 0.04729739 -0.10253388
0.02723665 0.07814604 0.21903381
-0.150237 -0.06206400 -0.11643922
0.08355723 -0.05307495 0.19715646
-0.14997787 0.07470758 0.02056276
-0.06155597 0.08081378 -0.07151966
0.04212697 0.07155191 -0.16897483
0.16600935 0.04004690 0.07933572
0.0890267 -0.06206400 0.210758
0.17481992 0.08011355 0.03169243
-0.00322363 -0.07099880 -0.35776653
0.09724501 -0.06609078 0.29657236
-0.1147413 0.03876342 -0.15399212
0.02707532 -0.05754366 0.21905968
0.16775199 -0.06669369 -0.31677252
0.17253008 -0.01957081 -0.03737247
-0.04449247 0.08776247 0.02500342
-0.26425872 -0.02053867 0.20903127
0.09388089 0.09819600 -0.15785421
0.17127506 -0.05789329 -0.04834176
0.1143525 -0.06206400 0.25817854
-0.18053819 -0.06012893 -0.06039388
0.10485631 0.07500876 -0.07106168
0.1767706 -0.06069814 0.24910294
0.01708639 0.08914203 -0.0371278
-0.15589032 0.03089502 0.10652214
-0.27989005 -0.02506061 -0.05131335
0.06418747 -0.06854960 0.31750338
0.19418286 -0.05845139 -0.16606695
0.06060751 -0.06917967 -0.33986057
0.15483214 -0.06709227 -0.31930835
0.1563506 0.09073090 -0.09223131
-0.28157764 -0.00458896 0.17867689
0.28934318 -0.01822059 0.02816695
-0.13548692 -0.06206400 0.17751434
0.05593452 0.08869863 0.19647553
0.05674685 0.07985837 0.18587108
-0.28122958 -0.01071451 0.16735437
-0.12898789 -0.05174640 0.15338124
-0.02417908 -0.06338523 0.27354113
0.09680674 -0.06369497 -0.28586059
0.26343306 -0.02559502 0.20488716
0.0996657 0.03652299 0.1844068
-0.30015241 0.00669517 0.09615885
-0.08365928 -0.06870018 0.31878525
0.2323474 -0.04989793 0.12871544
0.1386553 -0.06206400 -0.15675718
-0.0967716 0.07918509 -0.02160287
-0.09428993 0.07739294 0.08222007
-0.10267162 0.00291378 -0.1652744
-0.10578839 -0.02979673 0.17786757
-0.17278394 0.06679098 0.04243513
-0.28965787 -0.01647128 0.05158839
-0.12570516 0.09764453 -0.13705987
-0.30945211 0.02389790 0.10423896
0.07757071 0.07888355 0.10235134
0.28729397 -0.01772563 0.09377118
0.25637983 -0.03928998 -0.01055713
-0.12798893 0.05740259 -0.1394606
-0.0718922 0.04902343 0.20260172
-0.18150795 -0.06000158 0.09935557
0.12224768 0.07036610 -0.07832557
-0.08494709 -0.07207186 -0.36832889
0.17228647 -0.04941580 -0.03962438
-0.16645687 -0.01693777 0.07544508
0.24952296 -0.04202377 -0.08940693
-0.10640377 0.04086928 -0.16178571
-0.14823833 0.07166588 0.00109286
0.15500067 -0.06303027 0.27051946
0.17641402 -0.04214535 -0.00143405
-0.1569751 0.09819600 -0.06062071
0.21956445 -0.05463257 0.14942478
0.18085764 -0.06020196 -0.12184414
0.12880337 0.08194965 0.1181718
0.05111048 0.07844257 0.18712466
0.11687057 0.06075561 0.1683252
-0.18009881 -0.06018670 -0.18314516
0.17625095 0.01115480 0.01845098
0.04800202 -0.02104049 0.21509692
-0.09099184 0.01222812 0.19169809
-0.15839705 -0.05071112 -0.08364123
0.1762883 -0.03308049 0.01810534
-0.14020903 -0.02764378 0.13556605
-0.26846805 -0.03013231 0.14356015
-0.1169966 0.07124477 -0.10332277
0.14407796 -0.01646610 0.13081302
-0.13621505 -0.01529737 -0.12640039
-0.075156 0.02896690 -0.1854488
-0.23122967 -0.04930146 0.16889478
-0.04062091 0.08005815 -0.20124093
0.19520057 -0.06062099 -0.29266568
-0.2778053 -0.01597972 0.17029253
0.15069189 -0.06206400 0.18209409
-0.01854001 -0.08035689 0.35011598
0.1106091 -0.03008654 -0.15867213
0.16591738 -0.06206400 -0.15870082
0.1644932 -0.06206400 0.1382997
-0.24491969 -0.04183550 0.1828119
-0.13327651 0.06991500 -0.06062163
0.24555831 -0.04383577 -0.22782985
-0.14713869 -0.05020467 -0.10905867
-0.07040143 0.07722110 -0.18784791
0.09207082 0.07783668 -0.14372665
-0.15985599 0.09582918 -0.02182151
-0.13946542 -0.00296009 0.13674801
0.21215011 -0.05404638 0.21512691
0.27425788 -0.00227799 0.21314847
0.29895837 -0.00311120 -0.01424012
-0.15186534 -0.06206400 0.14127824
-0.06769222 -0.06976356 -0.34560969
0.02080542 0.07938707 0.13629733
0.0050917 0.06092817 -0.20707857
0.10671761 0.09399638 0.1778153
-0.10810014 -0.06206400 0.22352902
0.1679833 0.06106896 0.07353052
-0.27101292 -0.03213903 -0.0395996
0.07434239 0.08500758 -0.00591882
0.17246774 0.07078072 0.0534573
0.19538406 -0.05829357 -0.08859109
-0.07243546 0.08339672 0.00694226
0.13169446 0.06991500 0.08539797
0.17162071 -0.06141551 0.24681197
-0.07190384 0.08223949 0.0587363
0.07623895 -0.01074960 0.20084912
0.08338528 0.08331970 -0.00299838
-0.00594028 -0.05561223 -0.20680234
0.08880848 0.07344761 -0.14123022
-0.20215078 -0.05716235 0.05052319
0.16240579 -0.06206400 0.20148632
0.20454316 -0.05173227 0.26978247
0.222329 -0.05420971 -0.16684006
-0.03823146 -0.02046667 0.21713025
0.03547783 0.08235877 0.11219558
0.06016001 -0.06206555 0.26230723
-0.14555534 -0.06093995 -0.11157223
-0.28118835 -0.02402537 0.03850637
-0.16900636 0.00102462 0.06794802
0.13414945 0.07173608 0.02136362
-0.02294419 0.09819600 0.20827103
-0.23617136 -0.04774236 0.10631743
0.0392785 0.08970100 0.04490686
-0.12570556 0.05201204 0.15859205
-0.07874851 0.06478817 -0.18363624
0.23443768 -0.04893876 -0.14272788
-0.09660995 0.03346251 0.18644692
-0.09321368 0.06159480 -0.17411532
-0.05397371 0.07976173 0.11265203
0.10925056 0.01397824 0.17544768
0.15951653 0.08446277 0.01269856
-0.17220456 -0.04279652 -0.03228817
-0.09889954 -0.06710047 -0.31938912
-0.28792875 -0.01865072 0.00615624
0.05808512 0.00609279 0.21000919
0.31499322 0.02238390 0.02013203
-0.15215335 0.05111690 -0.10109806
0.03574421 -0.06282111 -0.27725706
-0.05599888 0.08583045 0.00147111
-0.11747858 0.04717251 0.16693939
-0.02198658 -0.06206400 -0.24732108
-0.15930069 0.08850318 0.09649247
-0.23809081 -0.04686155 0.0826606
-0.11638104 -0.06206400 0.17342836
-0.20860675 -0.04463993 0.30877646
-0.10431103 -0.05132947 -0.16374192
-0.11086035 0.09321517 0.15515633
-0.28601176 -0.01229558 0.14681135
-0.10560576 0.08723309 -0.16253166
-0.2508234 -0.03843575 0.18423643
0.08198944 -0.06860688 -0.33422076
0.0248367 0.00012044 -0.20391225
-0.15952392 -0.06206400 0.18802508
0.11242257 -0.04685140 0.17248279
0.07262041 -0.06206400 -0.25134922
0.10724025 -0.06249555 0.26596758
0.17208731 0.09541445 0.04677785
-0.14722821 -0.01325607 -0.10891699
-0.25625387 -0.03900484 -0.23616538
-0.15732477 0.08437034 -0.0867954
0.16948324 0.08607748 0.06911923
0.13826532 0.06991500 0.06126119
-0.04635901 0.07884988 -0.1053518
0.00890352 0.06297084 0.22197412
-0.28657639 -0.01972906 0.06184864
0.20507259 -0.05684921 -0.18418159
-0.1396006 0.08496865 0.10223483
0.15701207 -0.05838875 0.10579483
-0.2896938 0.01082469 0.18033044
-0.2267258 -0.04325246 0.26675784
-0.26025214 -0.01721331 0.22751414
0.12897263 0.09416023 -0.13928085
0.14236696 0.07251427 -0.0481093
0.16409338 0.04339195 0.08497015
-0.13505786 0.07089908 0.03414672
0.07692658 0.08485554 0.01072584
0.27873345 0.00046448 0.20282862
0.08500651 -0.06641918 0.29936798
0.15570065 0.09457612 0.10849146
0.14309176 0.08649333 0.13237949
-0.14980696 -0.06988746 -0.3468297
0.00590842 0.07013605 -0.16866816
-0.03511965 0.07222782 0.16818128
-0.09033622 0.07877461 0.19231114
0.25345289 -0.03687049 0.19749025
-0.15970425 -0.00382920 -0.07979663
0.08136233 -0.05954939 0.19826397
0.14011161 -0.02280993 0.13711014
-0.12672948 0.07072583 0.0740901
-0.06294012 0.07850401 -0.16569871
-0.16592557 -0.06682185 0.32901
-0.077913 0.07858415 -0.0754694
0.03613276 0.08933439 -0.02541276
0.10487461 0.04715533 -0.16403197
0.06901453 -0.06206400 -0.26353024
-0.23908918 -0.04640341 0.03703904
0.2317985 -0.05014981 0.03469022
0.17391403 -0.04936723 -0.02456668
0.17736362 -0.06066070 0.06051613
-0.31767936 0.02900424 -0.00997535
0.00069568 -0.00836987 -0.20778352
0.02648221 -0.07083815 0.32619655
-0.05835324 0.08363534 0.06821652
0.16419631 -0.06420754 -0.29090707
-0.13931405 -0.06360965 -0.28502052
-0.12713908 0.08062766 -0.10221599
-0.05292534 -0.00218738 -0.19666579
-0.2057055 -0.05661867 -0.0856481
-0.0201596 -0.03679246 0.22002867
0.12744545 0.09819600 -0.1337558
-0.05150327 -0.06801988 0.31299411
0.25196607 -0.04104972 0.05758132
-0.09534023 -0.08102831 0.35180318
0.13186919 -0.06206400 -0.22794955
0.09730939 0.08087769 0.00899512
-0.14319959 -0.05705230 -0.11531198
-0.09491343 0.07640993 0.15393146
-0.10918165 -0.01295916 0.17469535
-0.17279237 -0.04749250 0.04235713
0.13207232 0.07463818 -0.08398591
-0.30570757 0.00897606 -0.09120541
0.17404255 0.02407602 0.03888551
-0.16479744 -0.00012006 0.08032635
-0.09640662 -0.07106193 0.32675887
0.10338219 0.07604136 0.18093295
0.26956771 -0.03398910 -0.01843095
0.0671403 -0.07064993 0.32572356
-0.16616869 -0.06201675 0.1366464
0.24354386 -0.04476016 -0.04681526
0.14070211 0.08240119 -0.07907803
-0.06510831 -0.01005227 -0.19051854
-0.04440604 0.08041150 -0.20063394
-0.24997118 -0.04149659 -0.14183324
-0.22210177 -0.05253237 0.20212362
-0.16385835 -0.06727759 0.32543153
-0.08876208 0.09701939 0.17581235
0.17478183 0.03126602 0.03204483
0.09936234 0.07818880 -0.04965845
0.14205543 0.07590034 0.07307882
-0.17614596 -0.04642977 0.01132635
-0.30924823 0.01458989 0.00102384
-0.01376339 -0.06206400 0.22743627
0.04224071 -0.08214222 0.35460232
-0.23533895 -0.04801786 0.1425946
-0.09500653 0.07282916 0.11775987
-0.16209583 -0.06762409 0.32233483
0.17657403 0.08537514 0.01546149
-0.15803358 -0.06481328 0.28774012
0.04220238 0.08672819 -0.20112747
0.0213648 0.01778283 0.21997555
-0.15342528 0.00057761 -0.09826364
-0.05237469 -0.06498129 -0.29852492
0.16872831 -0.06525629 0.30065236
-0.0109266 0.01483469 -0.20600273
0.17307262 -0.00611174 0.04786035
0.07450567 -0.06206400 0.2107203
-0.07291926 0.03292552 0.20208349
-0.08319172 -0.06206400 -0.18339609
-0.06121186 0.07284561 0.17554306
-0.15225014 0.09743587 -0.06019433
-0.25274482 -0.01713802 0.25161796
0.16070209 -0.06206400 0.23153473
-0.10473829 -0.08014506 0.34969103
-0.12775511 -0.01515180 -0.13983175
-0.31552124 0.02499114 -7.184e-05
-0.1433591 0.04421148 -0.11505959
0.13798787 0.08280286 0.14048223
0.11391292 0.02425116 0.17109055
-0.17365454 0.04822072 0.03437935
0.02508315 0.07196153 0.17217832
0.13666262 -0.06206400 -0.22315001
-0.06437757 0.07437506 -0.12253311
0.01538872 0.08208895 -0.20542733
-0.161608 -0.03222221 -0.07419753
0.034884 -0.06206400 0.24473385
0.132106 0.07156228 0.04619308
-0.25266422 -0.04042283 -0.00406142
0.03763323 0.08101132 0.11989484
0.0016117 0.09819600 -0.19803726
-0.02392196 0.01711217 -0.20391878
0.08265694 -0.05127480 -0.18210473
-0.16920574 -0.00825288 0.06736174
0.01918881 -0.07688911 0.34140185
-0.14038727 0.08477248 0.09941534
-0.16354599 0.01523844 0.08400723
0.11429488 0.09143859 -0.13718022
0.13207978 0.08218658 -0.09798575
0.30268155 0.00279241 -0.01201208
-0.1482814 -0.04360530 0.1227522
0.20468904 -0.05876620 -0.28835692
-0.30147557 0.02042900 0.13795015
0.10990347 -0.06206400 -0.21708902
0.1384017 0.06920159 -0.12431828
-0.13627216 0.01115436 -0.1263102
0.05835706 0.08828202 0.03443249
-0.07018929 -0.06206400 -0.25594032
-0.08156798 -0.02385354 -0.18221286
0.05124651 0.08884414 0.19892534
0.05187255 -0.06206400 -0.2290553
-0.17421314 0.08928768 -0.01370258
0.17392835 0.09158274 -0.02443416
-0.08807782 0.04507809 -0.17891613
-0.02988305 0.07796482 -0.12142751
-0.16313624 -0.06813060 -0.32953116
-0.02104184 -0.07042830 -0.35215245
0.23493179 -0.04871202 0.07867212
-0.08984055 0.07590135 0.10127097
-0.25320446 -0.04020743 0.06756718
0.15685267 -0.06206400 0.15698137
-0.11902724 0.03860798 0.16549175
-0.12583954 0.08784963 -0.14287328
0.03354245 0.08789803 0.07704989
-0.21792427 -0.05474986 0.15241083
-0.10829111 0.07515310 -0.05255522
0.17058043 -0.06789627 -0.33228947
0.21824002 -0.05483515 -0.21649431
-0.2052653 -0.05668600 0.00251628
-0.00237579 0.07771374 0.14858161
0.01917411 0.04839001 -0.20482031
0.21003601 -0.05611242 -0.25451755
0.10062562 0.09819600 0.17779154
0.03420186 -0.06218840 0.26335295
-0.14569974 0.07977487 0.07090007
-0.17641963 -0.00352967 0.00671419
0.03212507 -0.06206400 0.26169243
0.0176467 -0.04319843 -0.20506524
0.11766485 -0.06274318 -0.27648982
0.1275915 -0.05348460 -0.14148077
-0.18368142 -0.06165762 -0.28903505
0.10796768 -0.06206400 -0.18317665
0.19850615 -0.05724355 0.21215107
0.20925233 -0.05620988 -0.01575926
-0.16092106 0.01025266 0.09172698
-0.25749201 -0.03849793 0.06816903
-0.07038182 0.07980808 0.20336381
0.16403615 -0.06206400 0.13356595
-0.29511765 -0.00781462 -0.07592038
-0.09720378 0.07913868 0.04232488
-0.17201839 0.03327757 0.0495188
-0.0549915 0.08063326 0.10412784
-0.01888484 -0.06206400 -0.24681354
-0.16195567 -0.06206400 -0.17941853
0.13863675 -0.05900820 0.13945102
0.06748965 0.07348573 0.17329205
0.13697901 -0.06666137 0.3036868
-0.04874666 -0.03943280 -0.1987742
-0.1132895 0.08774590 -0.15534918
0.22218907 -0.05426263 -0.26141059
-0.09016043 -0.06206400 0.21915566
-0.07920369 0.08382470 -0.16260718
0.17019628 -0.06160258 -0.06915575
-0.2390953 -0.04640060 -0.18533456
-0.11584374 -0.06206400 0.21433242
-0.30027906 0.00036897 -0.0661229
-0.03142275 0.09819600 -0.19825263
-0.20863058 -0.05617129 -0.01027668
0.07801757 -0.07259980 -0.37353234
0.09311344 0.09425750 -0.17488961
0.25823673 -0.03555926 0.14364982
-0.05064638 -0.02250939 0.21332168
0.17014279 -0.06160961 0.15222543
-0.2818677 -0.02348367 -0.01674349
0.18596052 -0.05953147 -0.05276905
-0.00072588 0.06204734 -0.20763852
-0.13462704 -0.06206400 -0.1801966
-0.07950079 0.03581342 -0.18325647
0.00686099 0.09501576 0.22139273
0.13852015 0.08434335 0.13963721
-0.00277198 0.01336133 -0.20731041
0.13454833 -0.06206400 -0.13443902
-0.2128649 -0.05552367 -0.18211216
0.07219483 0.07117432 -0.13754912
-0.261851 -0.03605986 0.10998248
0.12070818 -0.06206400 -0.20833015
-0.17193096 0.03318025 -0.03481982
0.17602185 -0.06083726 0.18411332
-0.192868 -0.05850917 0.07772274
0.02930602 -0.06206400 -0.22377503
0.20537197 -0.05680341 -0.1690212
0.17070163 -0.01610299 0.06553597
-0.0962521 -0.08146356 0.35289691
-0.16009494 0.09819600 -0.03301274
-0.2908513 0.00145153 0.15425182
-0.10125646 -0.06206400 -0.24601056
-0.06108113 0.08492984 0.03741003
0.09481415 0.08091187 -0.01245689
0.21228716 -0.05574568 -0.05922562
-0.08753436 -0.04848665 0.19470917
0.17240438 0.03680345 0.05404358
0.14904796 -0.01974294 -0.10741578
0.22232833 -0.05372083 0.17494329
0.09571034 -0.07800283 0.34420052
0.27505297 -0.02961528 -0.20548369
-0.08929113 -0.02901944 -0.17778198
-0.0009864 -0.06751514 -0.32347174
0.17648572 -0.05303902 0.01627725
0.08938808 0.08047752 0.06408019
0.27221801 -0.02758631 0.14171661
-0.06809054 0.08406314 0.02330459
-0.06105587 0.03460477 0.20806939
-0.27590832 -0.02823554 -0.13551957
0.14271963 -0.05634639 0.13296936
0.16521031 -0.02635965 0.08168493
-0.06582459 0.08200613 -0.0487428
-0.28577012 -0.02037197 0.05327446
-0.30947069 0.01494260 -0.01213303
-0.07393829 0.05201192 -0.18606332
-0.24043052 -0.04578788 -0.07788451
0.21281043 -0.05566565 0.04866403
0.13726968 0.05224764 0.14162247
-0.25709028 -0.03865810 -0.17041694
0.1679908 0.09819600 0.00523318
-0.28817539 0.00113393 0.1670325
0.14969183 -0.06593859 0.29949869
-0.02762461 0.07352406 -0.20332502
-0.23674953 -0.04405525 0.23564675
-0.05787915 0.08235198 0.08403525
0.0853212 0.07348505 0.12802931
0.13107944 0.06991500 -0.07328339
-0.0090323 -0.06882968 -0.33641448
-0.03818881 0.08682027 0.06283823
-0.15434577 -0.02037730 -0.09555641
0.06913531 0.08518506 -0.01907699
0.15447935 -0.06717195 0.3364381
-0.15713508 -0.03453900 0.10286137
-0.14528202 0.07120493 0.0377497
-0.04788736 0.08236392 0.09573041
-0.09499841 0.03875051 -0.17244702
0.09553358 -0.06423764 0.28079733
-0.17155783 -0.02310103 0.05378039
0.09416307 -0.06711232 -0.31950581
-0.31031004 0.01627343 -4.054e-05
-0.12583501 -0.07203873 -0.36800225
0.08007292 -0.06622904 -0.31080948
-0.16509595 -0.05657564 -0.06393917
0.0825812 0.08173115 -0.03851689
0.17508304 -0.06096059 -0.1853776
-0.15346799 0.08680334 -0.09813802
-0.17987543 -0.06084279 0.32176336
-0.12609897 0.02499951 -0.14246124
-0.01800781 -0.06439932 -0.2927952
0.23828421 -0.04717368 -0.20214232
-0.0470353 -0.04509262 0.21514372
0.07770393 -0.06206400 0.23790636
0.09449401 0.03039764 -0.17373491
-0.14804534 -0.06206400 -0.21113513
-0.19917567 -0.05634561 0.24201282
0.07664964 0.08463439 -0.00242013
-0.01103921 0.08970100 0.00144035
-0.18363402 -0.05972227 0.14382225
0.15585765 0.06276054 -0.0936808
0.29599196 -0.00781491 0.00275019
0.0814901 -0.01369318 -0.18269349
-0.11984086 0.08523107 -0.12117554
-0.12632989 -0.07074174 -0.35523686
-0.09022135 0.07895069 0.06846764
0.03859283 0.07276517 -0.17207027
0.03900299 -0.06470145 0.28474558
-0.03938212 0.00114741 0.21694571
0.08208016 0.07589839 0.11756111
0.09003728 -0.06206400 0.24824318
-0.15694393 -0.00591359 -0.08791497
-0.01058272 0.06991500 -0.16931965
-0.09483568 0.09819600 0.18042737
-0.13008498 -0.01349410 0.15163957
0.14749923 -0.06206400 0.20145983
-0.04172674 0.07932941 -0.10343319
-0.08028084 0.07042137 0.14936102
0.06806268 0.04255294 0.2049747
-0.17650899 -0.00614634 0.00796695
0.25843714 -0.03846975 -0.02707352
0.04955213 -0.06808633 0.3135598
-0.15975104 0.05669442 0.09516798
0.28935879 -0.01820814 -0.07084502
0.15917895 -0.05531651 0.09942298
0.16505999 -0.00016770 0.08212769
0.04542455 0.07615672 -0.20061077
-0.30365118 0.00571558 -0.08983291
