# .PCD v0.7 - Point Cloud Data file format
VERSION 0.7
FIELDS x y z
SIZE 4 4 4
TYPE F F F
COUNT 1 1 1
WIDTH 1404
HEIGHT 1
VIEWPOINT 0 0 0 1 0 0 0
POINTS 1404
DATA ascii
-0.06015311 0.00915554 -0.13228295
0.42471893 0.27649936 -0.25179382
-0.13863192 0.00111736 -0.13352559
-0.12508942 -0.00158700 0.21150711
0.3684839 0.17202392 -0.21347615
0.20955392 -0.00180983 -0.11952
0.44301394 0.30719762 -0.23899399
0.02271773 0.14473644 -0.18692941
-0.203888 0.12569907 -0.19028358
-0.13238459 -0.00018000 -0.09425544
-0.17091969 0.17644148 -0.19905026
0.05361247 -0.00158700 -0.11562966
-0.06601953 0.22863560 -0.21900408
0.38529747 -0.00158700 0.0988636
-0.19486715 0.19840915 -0.1974044
0.31198329 0.00112700 0.08560347
-0.19059272 0.01085506 -0.12570282
0.42764389 0.08744195 -0.16502571
-0.203888 -0.00413901 0.08820714
-0.18224413 0.12820539 -0.19513795
0.25858944 0.39355278 -0.28205196
-0.10255999 0.37972207 -0.27676447
-0.09272832 -0.00158700 0.32432493
-0.06343924 0.29725281 -0.24523646
-0.08490604 0.37679286 -0.28162881
-0.19731368 -0.00158700 0.21034587
0.17797774 0.40049436 -0.28470573
0.39283876 -0.00158700 0.28157258
0.10362181 -0.00368593 -0.13099264
-0.01062042 -0.00075000 0.10235816
-0.05856861 -0.00158700 0.31675084
-0.203888 0.29861709 -0.25474324
0.27929474 0.00112700 0.1843708
-0.06892396 0.37276249 -0.28052699
-0.12342227 0.12728869 -0.19472884
-0.02223649 0.03742709 -0.14590502
-0.08520109 0.11168647 -0.1742944
0.24850848 0.42236772 -0.28415762
-0.19910923 0.29793936 -0.25867479
0.01587566 0.39749563 -0.28355931
0.43895799 0.09714179 -0.16219382
0.40527606 -0.00158700 -0.05082406
0.09300827 0.39239880 -0.28566037
0.45047399 0.34618102 -0.27133169
-0.09237664 -0.00049050 -0.072282
0.22463907 0.22094763 -0.23230498
0.10146078 0.05621981 -0.15308948
-0.01183553 0.00126225 0.11629633
-0.10004483 0.30996354 -0.25009578
0.23403345 -0.00158700 0.28323771
-0.11978006 0.00159600 0.0126641
-0.05636614 0.41528381 -0.28751484
-0.18939544 0.03467203 -0.13480801
-0.15379801 0.32784071 -0.26782534
0.37458125 0.42213457 -0.28293422
0.11222752 0.26809685 -0.23409012
-0.08424457 0.30480589 -0.248124
0.3535217 -0.00158700 0.3252683
0.35202265 0.00335364 -0.11312059
-0.03990916 -0.00158700 0.21878378
0.24002946 0.14116560 -0.20065764
0.03427211 -0.00158700 0.24092412
-0.15617765 -0.00158700 0.04527845
0.26799419 0.00159600 0.01120382
0.33509819 0.09861106 -0.16929567
-0.00570778 0.24265011 -0.24019373
0.36372255 0.00159600 0.04700416
0.10771475 0.31921956 -0.25363435
0.45047399 -0.00515045 0.18799459
0.36372484 0.35343667 -0.2752437
0.43896767 0.21569230 -0.23036135
0.08678161 -0.00158700 -0.1135015
0.16781206 0.00115468 0.1237204
0.34133007 0.08823989 -0.17709015
0.27482295 0.17439589 -0.21441274
0.24067766 0.25886638 -0.23056132
-0.07197788 0.11619105 -0.18977606
0.15803613 -0.00028000 0.31346174
-0.20246813 0.30528348 -0.26103181
-0.15347209 -0.00158700 0.10988916
0.41247836 0.23618535 -0.22189035
0.18760857 0.14077860 -0.20049496
-0.09608987 0.05943362 -0.15431812
0.10088075 0.06442977 -0.16583511
-0.19705046 -0.00471000 0.04062744
-0.12812261 -0.00158700 0.25357546
0.42426749 0.32093484 -0.26577429
-0.18398394 -0.00158700 -0.11410029
0.39047137 0.28375493 -0.25412243
0.00251544 0.01157326 -0.13903939
-0.13844755 0.39543936 -0.28642063
-0.10781132 0.00159600 0.0353004
0.17943904 -0.00075000 0.09598238
-0.20032861 -0.00158700 0.2612158
0.11797661 0.20334426 -0.22579454
0.23219862 0.00159600 -0.02698832
-0.06672154 0.06741682 -0.1573701
0.01065333 -0.00158700 0.26785959
-0.1444755 0.06909134 -0.16803863
-0.00653139 0.24336484 -0.22463508
0.12912595 0.00159600 -0.03805936
0.36215922 0.34600873 -0.26387586
-0.15742361 0.16727916 -0.21160263
0.30026931 0.26136819 -0.24665528
0.09923018 0.15988355 -0.20852575
0.12628779 0.11581591 -0.18960864
-0.05273407 0.00159600 -0.00228056
0.25673779 0.24796724 -0.22639458
0.38947946 -0.00158700 -0.01606129
0.19772247 0.32104368 -0.25433171
0.43086928 0.39933148 -0.28426116
0.30094065 0.11190255 -0.18786214
-0.04871379 0.00159600 -0.05981591
0.25993746 0.00112700 0.0413045
0.24956896 0.00112700 0.06786522
0.10945243 0.16391806 -0.19426255
0.39039867 0.05308140 -0.16023277
-0.08797123 -0.00075000 0.10716544
0.21556183 0.00112700 0.16568869
-0.1056337 0.00159600 -0.00545837
-0.17366008 0.21118812 -0.22869552
0.06980198 0.11303539 -0.17481009
0.14260662 -0.00158700 0.2371331
-0.07307263 0.41046417 -0.28851719
0.18139135 -0.00158700 -0.09805028
-0.13783576 0.00018900 0.0322114
0.27868391 -0.00158700 -0.10402603
-0.06602759 0.00134702 0.1104458
0.27793738 -0.00158700 0.3074906
-0.06028986 -0.00158700 0.22135747
0.19533363 0.15480035 -0.20638902
-0.19659485 0.16295328 -0.20981611
0.28359198 0.01249302 -0.13637272
-0.01732707 0.01824464 -0.14255745
-0.01105593 0.00112700 0.16925199
0.10313526 0.10945492 -0.18676979
0.33260029 0.02774157 -0.14756554
0.2665603 0.00112700 0.12716112
-0.08254515 0.32784690 -0.26782718
0.20534468 0.36296332 -0.2703576
-0.00897185 -0.00158700 0.27481151
-0.0325009 0.06404049 -0.1656511
0.19187805 0.33826092 -0.27092015
0.27888927 -0.00158700 0.26541038
0.37990369 0.05047555 -0.15089345
0.08421921 0.15252199 -0.18990583
-0.1376428 0.33302073 -0.26936381
-0.05769554 0.07133347 -0.16909849
-0.06106744 0.04457631 -0.14863817
0.04388711 0.07636745 -0.17147805
0.06923485 0.41761947 -0.28140445
0.26218103 0.13807759 -0.19935958
-0.03866919 0.07253144 -0.15932542
0.0261896 0.09990546 -0.16979052
0.14181569 0.00113263 0.12524244
-0.13363632 0.00835926 -0.13436588
-0.08620932 0.22875190 -0.21904855
-0.10825278 -0.00075000 0.10599182
-0.04355318 -0.00158700 0.23016079
0.26396648 0.22939919 -0.21929601
-0.01249008 0.15506641 -0.20650086
0.26653067 0.33912523 -0.2612443
0.08843095 -0.00075000 0.10155683
-0.09847618 0.03261162 -0.14406406
0.39434658 0.41925239 -0.29230782
0.0347139 0.12076353 -0.19181672
-0.203888 0.21905212 -0.21578051
0.07167123 0.00159600 0.00099585
-0.08653251 0.40582654 -0.28901785
0.21845428 -0.00158700 0.25304272
0.13084882 0.03639595 -0.14551082
-0.01778381 0.00159600 0.03301757
0.12373529 0.16944958 -0.19637725
-0.00225911 0.14813407 -0.20358684
0.24246515 -0.00158700 0.21657692
0.01416611 -0.00075000 0.10940046
0.27965135 -0.00158700 0.27030244
-0.02809712 0.04390342 -0.15564593
0.10388241 -0.00075000 0.26721035
0.05125303 0.11975922 -0.17738061
0.28483354 0.37135457 -0.27356558
0.2908655 0.06893114 -0.16796291
0.39824863 -0.00158700 0.2486937
0.42732014 -0.00158700 -0.03086834
-0.18908399 0.31654087 -0.2488111
0.31023428 0.01039255 -0.13841675
-0.20042126 -0.00585500 0.03428201
-0.20380705 0.40183777 -0.27517481
-0.04939567 0.21187104 -0.21259499
0.21506127 0.24530236 -0.22537579
0.1684672 0.25559726 -0.22931153
-0.12163189 0.00152075 0.09845524
-0.18220652 -0.00443200 0.02657967
0.33404112 0.13610776 -0.18363067
-0.151563 -0.00158700 0.32804042
0.44644068 0.18085478 -0.19069339
0.35915222 0.10244043 -0.18363928
0.06517444 0.35845315 -0.26863336
0.22884024 0.31744165 -0.26473681
-0.16817212 -0.00158700 0.3168295
-0.15713383 -0.00158700 0.15133102
-0.203888 0.35691603 -0.27068546
-0.03278635 0.00112700 0.18987664
-0.20038844 -0.00158700 0.26601787
0.14791156 0.00159600 0.02772523
-0.0224249 0.31654665 -0.2526125
0.33869148 0.41964880 -0.29127074
-0.15054473 -0.00158700 0.20287212
-0.02569427 0.03895570 -0.14648941
0.40835293 -0.00158700 0.19903271
0.02397687 0.24876838 -0.24230578
-0.203888 0.21313098 -0.22473067
-0.18178941 -0.00158700 0.14691181
0.23833375 0.15902448 -0.19239174
-0.0219884 0.24233086 -0.22423978
-0.00457434 0.00159600 -0.01002918
-0.12438411 0.12406040 -0.19328808
0.04611523 0.28953178 -0.2422847
-0.05001118 0.40953145 -0.28994423
0.32675898 0.01373058 -0.13684584
0.13013965 0.00112700 0.13749055
0.05992585 0.16278912 -0.20974711
0.13961804 0.00112700 0.08195947
-0.0855982 0.02063399 -0.13948502
0.31598698 0.03026680 -0.14316764
0.45047399 0.36880559 -0.26626062
0.41640326 -0.00158700 -0.00241435
0.30450607 0.00112700 0.15673621
0.42918311 0.00846705 -0.1340839
0.33024289 0.05439782 -0.16089067
-0.09292689 -0.00158700 -0.08043784
0.37645609 0.07116204 -0.1588019
0.3657185 0.02970462 -0.14854987
0.0749088 0.32690713 -0.25657331
-0.03126211 0.14611640 -0.20273871
0.18508281 -0.00158700 0.24573786
0.43335153 0.36444757 -0.27825385
0.44677728 -0.00158700 0.03538861
-0.19002134 0.10206579 -0.1605725
0.17226172 0.30601020 -0.26126505
0.12301906 0.06449083 -0.16586398
-0.17851339 0.38101314 -0.27725805
0.41618084 0.20386485 -0.20953422
-0.02314527 0.20013349 -0.20810772
0.06708193 0.29455676 -0.25758917
-0.01855411 0.00018900 -0.07141907
0.05447972 0.00159600 -0.00587384
-0.14995865 0.41228417 -0.29063252
-0.10849467 0.01076079 -0.12808389
-0.18147099 -0.00548700 0.04749807
0.36741304 0.10917814 -0.17333547
0.42101644 0.05789654 -0.1537305
0.10946373 -0.00028000 0.30377287
0.00165824 -0.00158700 -0.1064592
0.40343432 -0.00158700 0.00827703
0.37510459 0.12691369 -0.19456148
-0.12276837 -0.00158700 0.21132901
-0.13141336 0.34196790 -0.26233105
0.22036631 0.00112700 0.12803428
-0.12342806 0.06592374 -0.16654131
-0.04457897 0.00159600 -0.03127769
0.21875281 0.17118071 -0.2131432
0.3182114 0.06336603 -0.15582148
0.30331821 0.34897454 -0.27402384
-0.1677506 -0.00158700 0.12053102
0.17081607 0.15322771 -0.19017563
0.43680669 0.24941829 -0.24253013
0.16169622 0.32337418 -0.26649878
0.41693067 0.11758773 -0.17655045
0.42801417 0.26552757 -0.24809112
0.43647901 -0.00158700 0.09365559
-0.19263954 0.22508169 -0.23383393
0.13534806 -0.00158700 0.21408361
0.17250418 0.00112700 0.04293921
-0.18076705 0.30032306 -0.25943982
-0.12120295 0.26049880 -0.24635517
-0.09633622 0.26970498 -0.24953318
0.1952507 0.00112700 0.15992437
0.0303712 0.16628893 -0.19516893
-0.0092881 0.00018900 -0.0694011
-0.13085433 0.04184681 -0.14759468
-0.04085393 0.00018900 -0.06406182
-0.01106091 0.32742000 -0.26770039
0.42569061 0.11027625 -0.17375527
-0.17878475 -0.00158700 -0.00741047
-0.16466365 -0.00158700 0.13776604
0.42982807 0.35786445 -0.2684083
0.15159869 0.03057560 -0.1432857
-0.13202472 0.37925475 -0.28230184
-0.18287456 -0.00158700 0.31034222
-0.08707884 0.22746329 -0.23471474
0.30569178 0.00018900 -0.06877291
-0.17217318 0.30229963 -0.24716586
0.19930054 0.00112700 0.13778568
0.34816743 -0.00158700 0.23947537
0.28254235 -0.00158700 0.27673661
-0.17313349 -0.00548700 0.03342957
0.14558732 0.00159600 0.02868391
-0.15879173 -0.00158700 0.09973433
0.25073441 0.02482711 -0.14108805
0.05154104 0.32379369 -0.25538304
-0.0464689 -0.00158700 0.3081828
0.06046138 0.29780048 -0.24544583
0.3456395 0.00112700 0.18581709
0.16678812 0.38310061 -0.28333544
0.20170869 0.11628275 -0.17605156
0.19523354 -0.00158700 0.21565117
0.33861472 0.18977833 -0.20414894
0.16743199 0.31213964 -0.2631621
0.35788887 0.26529883 -0.24801216
-0.06250808 0.00112700 0.15587348
0.21757473 0.22356514 -0.23327305
-0.16179807 0.11823679 -0.17679859
0.3390896 0.27831971 -0.23799833
0.42672579 -0.00158700 0.27823937
0.17392525 0.30329704 -0.26039429
0.11351901 0.00139359 0.10723152
-0.03605608 0.00159600 -0.06083005
0.05884041 0.39452435 -0.28242339
0.37732017 0.04131293 -0.14739058
0.03955972 0.13344588 -0.19741264
-0.19165612 0.17642340 -0.18899927
0.39525723 0.29291494 -0.25706225
-0.02457614 0.14380427 -0.18657304
0.30240578 0.00159600 -0.06039544
-0.00837151 0.00159600 0.05585424
0.36967796 -0.00158700 0.23567628
-0.14357364 0.42061781 -0.28873567
0.05192098 0.28400638 -0.24017235
0.01725652 0.28838808 -0.24184747
-0.1458364 -0.00158700 -0.04666411
0.02686037 0.33630440 -0.27033906
-0.00636108 0.15722283 -0.19170296
-0.19028688 0.40604118 -0.27678162
0.33505482 0.28636814 -0.25496111
0.44104318 0.34709304 -0.27350948
0.14223437 0.11446348 -0.17535605
-0.01047227 0.36479387 -0.27105742
0.02747452 0.27396284 -0.25097974
0.13179739 -0.00075000 0.26871269
-0.12919356 0.08565991 -0.17587059
0.04443048 0.25001211 -0.22717633
0.08372656 0.25384741 -0.22864256
-0.19808771 -0.00158700 -0.10951888
0.28446224 0.24366853 -0.22475118
0.12121244 0.18976769 -0.22048244
0.15061171 0.08573388 -0.16437272
0.34491894 0.00112700 0.13963528
-0.203888 0.40451819 -0.285697
-0.11535314 0.29273860 -0.24351067
0.19763563 -0.00158700 -0.07414517
-0.17926114 0.13442611 -0.18298777
0.44770643 0.07300025 -0.16988638
-0.10241133 0.11254694 -0.18814973
0.09797011 0.09995960 -0.18253211
0.04735951 0.10134616 -0.1703413
0.42058663 0.13608447 -0.18362176
0.01344847 0.26675944 -0.23357884
0.16282198 0.00112700 0.13758697
0.38617636 0.12817738 -0.18059888
0.05537671 0.41421386 -0.2899507
0.26026973 0.03599742 -0.14535846
0.32460286 0.00112700 0.16561337
0.04295483 0.30945042 -0.2623634
0.43385848 0.32602774 -0.26728689
0.18245952 -0.00308328 0.32840499
0.10739219 0.10852509 -0.18635481
0.13378892 0.10810916 -0.18616919
0.02397611 0.24068293 -0.23951465
0.35954048 0.00159600 0.08211939
0.41462889 0.34860426 -0.27392261
-0.05364035 0.00122125 0.11912584
-0.07360286 0.00159600 0.0886085
0.34214064 0.09768671 -0.16894229
-0.18334466 0.34185496 -0.26228787
0.22884322 -0.00158700 0.29810068
0.07347094 0.40945086 -0.28992408
0.35829643 -0.00158700 0.21404532
0.22827459 0.20194927 -0.20880189
0.23567639 0.12849487 -0.19526714
0.2225225 0.00112700 0.08584295
-0.03704499 -0.00158700 0.25144393
0.41590226 -0.00158700 0.06616869
0.45047399 0.22657549 -0.23136221
0.21317166 0.13575667 -0.19838398
0.30489136 0.27929700 -0.2526917
0.20130851 0.05491369 -0.16114848
-0.14195244 -0.00158700 -0.00289776
-0.04308839 0.09007543 -0.16603249
0.24136684 0.29207435 -0.24325673
0.44004246 0.16277918 -0.20974293
-0.05325863 0.21972684 -0.23185349
-0.20276113 0.14881642 -0.20387367
-0.19818747 0.32320709 -0.26644915
0.202621 -0.00075000 0.10246288
0.43895799 0.17360278 -0.19724975
0.31846797 0.33345961 -0.26949416
-0.19035473 -0.00471000 0.0276315
-0.1037496 0.05671063 -0.16204653
-0.18558512 -0.00548700 0.02715077
-0.18409574 0.34867956 -0.26489692
0.30537784 0.08509307 -0.17560265
0.40638203 0.36301413 -0.27037703
-0.09838757 0.21429768 -0.22984556
-0.2034125 0.05062820 -0.14090794
0.39538963 -0.00185527 -0.11963889
0.0470673 0.00159600 0.06468716
0.22677737 0.25115517 -0.22761332
-0.18556921 -0.00158700 0.26065195
0.11030441 0.05038722 -0.15888631
-0.0736345 0.36103419 -0.2773207
0.30678638 0.25173649 -0.22783556
0.17890276 0.10579412 -0.18513601
0.34405649 0.08400195 -0.1637106
0.26197636 0.31821453 -0.25325013
0.40359151 -0.00075000 0.31826228
-0.18180684 0.09000535 -0.17792468
-0.06650114 -0.00378442 -0.1309407
0.28300253 0.00159600 -0.05512564
0.26307937 0.04623363 -0.15681049
-0.01128014 -0.00075000 0.10092105
0.1522884 0.33493395 -0.25964196
0.19001969 0.36738308 -0.27204728
0.33644202 0.01078313 -0.13862272
-0.15464342 0.30165262 -0.25986652
0.44222702 -0.00158700 0.31697203
0.44743675 0.13061454 -0.19621313
0.30298998 0.00159600 0.04783222
-0.05760224 0.10776892 -0.18601734
-0.03836783 0.32184613 -0.26604494
0.25898794 0.00159600 -0.00794225
0.05925134 0.23057430 -0.23586532
0.03495686 -0.00158700 0.25757635
0.41852181 -0.00158700 -0.09515044
0.29960311 0.00159600 0.0430966
-0.07580004 0.23425146 -0.23722528
-0.09929177 0.00159600 0.07006604
0.22056042 0.00112700 0.15442312
-0.18960178 -0.00158700 0.29636916
0.14153094 0.13214586 -0.18211603
-0.14176876 -0.00158700 0.09893768
0.23101333 0.14965945 -0.18881148
0.3096053 0.14377633 -0.18656236
0.21793279 0.04458503 -0.15598658
0.41219022 0.24423702 -0.24074153
0.22367812 -0.00075000 0.10686658
-0.12200743 0.14123845 -0.20068826
0.20814119 0.16821197 -0.19590411
-0.18859138 0.26803792 -0.2340676
0.09725647 0.14326306 -0.18636614
-0.14765703 0.02858809 -0.14252587
0.18061444 0.00112700 0.17234483
0.05428034 0.32690696 -0.25657325
-0.17374304 0.05877197 -0.15406517
0.31238897 0.39750259 -0.28356197
-0.13226417 0.00018900 0.14266345
0.23614272 0.00112700 0.1386073
-0.0071958 0.12953048 -0.19572933
0.16731639 0.07446184 -0.17057727
-0.07559469 0.15666264 -0.1914888
-0.17773467 0.37452423 -0.27477734
-0.1397888 0.00018900 0.12317098
0.32586375 0.28304042 -0.23980306
-0.03731426 0.29758288 -0.24536264
-0.19833276 0.12975129 -0.1711566
0.16374573 -0.00075000 0.10422498
-0.0522447 0.00112700 0.15580783
0.43783167 0.42133479 -0.28262844
0.11145226 0.18203869 -0.21743057
-0.10446855 0.34689315 -0.27345483
0.36422659 0.33369902 -0.26956526
0.31782208 0.23909602 -0.23896684
0.43895799 0.12527777 -0.17413846
0.0727344 0.00159600 0.04207487
0.16867146 0.30202977 -0.25998757
0.27906737 -0.00075000 0.10684836
0.19351091 0.00150397 0.09961392
-0.05618137 0.01757009 -0.14220174
-0.0395135 0.00159600 0.08415851
-0.14698882 0.08257563 -0.17441265
-0.12680966 0.29945668 -0.25916176
-0.0185372 -0.00158700 0.27246219
0.44016028 0.20754513 -0.20089702
-0.00138873 0.36064389 -0.26947088
0.19797547 0.21781382 -0.23114597
0.33755359 0.35130845 -0.27466188
0.42067384 0.12185141 -0.19230223
0.19046556 0.33403081 -0.2592967
0.08623543 0.09675407 -0.18110151
0.15399998 0.36259664 -0.27774785
-0.13009024 -0.00075000 0.11881621
0.20808703 0.37942973 -0.28234967
-0.19319989 0.25044515 -0.21729764
0.4146389 0.36047328 -0.26940566
0.31662417 0.31339052 -0.25140591
0.18912974 0.00159600 0.09154224
0.15843814 0.40643488 -0.28916996
0.03573534 0.22366043 -0.21710207
0.35094445 -0.00158700 0.23930343
0.38437771 0.40113162 -0.28494935
0.20018671 0.05589709 -0.15296611
0.45047399 0.15826446 -0.20321484
-0.14953355 0.39808012 -0.28378277
0.25226474 0.08532240 -0.16421541
0.42589602 0.40015262 -0.28759914
-0.19587292 -0.00158700 0.25287185
0.31526095 0.35742508 -0.26824033
0.35180793 0.28245701 -0.23958002
0.37494855 -0.00158700 0.2771429
-0.02973317 0.09132693 -0.16651094
0.43980202 0.30654054 -0.26143526
0.23858229 0.00159600 -0.04503538
0.1323435 -0.00158700 -0.08089443
0.01023027 0.00112700 0.15883066
-0.16631685 0.33746809 -0.26061077
0.32004836 -0.00158700 0.31241902
-0.05862785 0.05809067 -0.15380471
-0.13514488 0.00018900 -0.03110174
0.45047399 0.26705799 -0.22659853
-0.203888 -0.00774123 -0.07267791
-0.10336949 -0.00158700 -0.10054456
0.30021585 0.22761465 -0.21861377
0.30363627 0.00159600 0.00618487
0.01874282 -0.00158700 -0.09260831
-0.14846042 -0.00158700 0.17870181
0.40587449 0.18474411 -0.21849883
0.06554732 -0.00301681 0.32840499
0.26058691 0.00018900 0.20012509
0.11441202 -0.00075000 0.29115089
0.2495387 -0.00075000 0.12379308
0.35398989 0.10783312 -0.17282126
0.00392226 0.37153419 -0.28019119
0.16527758 0.00112700 0.14696849
0.18460599 0.05485522 -0.1525678
0.45047399 0.38206048 -0.27518704
0.05642612 -0.00075000 0.11911753
0.18520873 -0.00158700 0.22781283
-0.13906872 0.07545647 -0.16044367
0.06793996 0.14373150 -0.18654522
0.31565641 0.15174045 -0.20510279
-0.06222831 0.21630511 -0.21429013
0.08484718 0.04057167 -0.1471072
0.31898487 0.00138336 -0.12208173
0.39241491 0.29441013 -0.2441497
0.30783449 0.39866187 -0.28400517
0.00204026 0.00112700 0.15686207
-0.02953963 0.07881522 -0.17263511
0.00204582 -0.00158700 0.2189943
0.00683438 0.39135505 -0.28121177
0.15367185 0.00159600 0.00201915
0.32000234 0.00702504 -0.13664094
0.02126227 0.00159600 -0.01205984
0.42262323 0.39005876 -0.28507526
-0.16868383 0.02864233 -0.14801898
0.43530385 0.35745529 -0.2763423
-0.17885787 0.16086460 -0.19309521
0.19161701 -0.00075000 0.12499471
0.00120847 -0.00158700 0.31623024
-0.19533491 0.05285156 -0.1601179
0.23225968 0.13936955 -0.19990266
0.11912963 0.29830795 -0.25879308
-0.14368628 -0.00158700 0.21047154
0.20159367 0.09323478 -0.17945123
-0.10749141 0.22957661 -0.21936383
0.08479228 0.41146198 -0.28889865
0.34725178 0.17927925 -0.20013514
-0.11476502 0.41587661 -0.29153077
-0.18998902 0.28589670 -0.25480981
-0.01931511 -0.00075000 0.0940617
0.06862707 0.00112700 0.14580375
-0.00910469 0.29141573 -0.25658109
-0.12059715 0.00112700 0.17981099
0.36090268 0.09004423 -0.16602057
-0.09930714 0.30964799 -0.24997514
0.1043186 0.00159600 0.01091862
-0.13964127 0.36961462 -0.27966642
0.25864388 -0.00158700 0.25258667
0.20757141 0.28786021 -0.25543998
-0.18721445 0.02240235 -0.14016106
0.42647399 0.13742519 -0.19908535
0.34850934 0.39042368 -0.28516651
-0.12688865 0.00159600 0.01843261
0.02770847 0.05739013 -0.1535369
-0.203888 0.21067608 -0.20243901
0.18165538 0.10980561 -0.1869263
0.1977391 -0.00158700 0.27035649
-0.1972601 -0.00158700 0.00371355
0.27290621 -0.00158700 0.22118716
0.10518798 0.37409052 -0.28089004
0.41712146 0.21416022 -0.21347014
0.2334095 0.28293726 -0.23976362
0.3159809 0.00112700 0.11745767
0.36921263 0.05950165 -0.15434413
-0.06765357 0.30017088 -0.24635204
0.36963529 0.00112700 0.1502572
0.28952187 0.09406917 -0.17984565
-0.02332078 0.40215003 -0.28533869
0.0149062 0.06675307 -0.15711635
0.1387817 0.39700138 -0.2868112
0.26741362 0.13575798 -0.18349695
0.27969324 0.13605125 -0.18360906
0.20931779 0.09388766 -0.16748991
0.43046153 -0.00158700 -0.0556668
0.42958283 -0.00158700 0.0729398
0.36123099 -0.00032799 0.203372
0.20443064 0.06864210 -0.15783853
0.20044548 0.00159600 -0.03901496
0.33796343 0.20758391 -0.21095602
-0.19888842 0.01692987 -0.14186413
0.35202818 0.14846312 -0.20372516
-0.05790103 0.15717782 -0.19168576
0.43800423 0.15246954 -0.18988578
-0.06951246 0.13937217 -0.19990376
0.39680978 -0.00158700 -0.02907334
0.16711548 -0.00075000 0.24405388
0.19795074 0.12725945 -0.18024796
0.1118553 0.35243164 -0.26633134
-0.18925374 -0.00158700 -0.10507965
0.2163082 0.00018900 0.19849987
-0.14812303 -0.00158700 0.26890287
0.34922402 0.03970342 -0.15354692
0.06725191 0.00112700 0.18663122
-0.18618901 -0.00158700 0.17487435
0.21733949 0.00112700 0.19311473
0.40052243 0.27549340 -0.23691783
-0.08033964 0.01207619 -0.13621337
0.25739969 0.16665321 -0.21135547
-0.20053401 -0.00158700 0.12481106
0.14412623 0.00159600 -0.02282383
0.10255521 0.19289304 -0.20533969
0.42814772 0.08446188 -0.16388643
0.05947989 0.37247335 -0.27399329
0.0626383 0.28381520 -0.24009925
0.15587915 0.02124448 -0.13971841
0.10607954 0.04438339 -0.15588581
0.39762227 0.24664962 -0.24157437
0.42107468 0.38184739 -0.27757699
0.3186391 0.00112700 0.1413474
0.43895799 0.21032319 -0.20781274
0.04720522 0.00139377 0.10721965
0.04596676 0.34213799 -0.26239607
0.39241728 0.20961503 -0.22811373
0.13475761 0.14450729 -0.20206232
0.03696378 0.03077164 -0.14336064
0.24331856 -0.00075000 0.11348917
-0.17329068 -0.00158700 0.23422072
-0.03122958 0.20928201 -0.2116052
0.28390015 0.23485349 -0.23744794
0.07768763 0.35667295 -0.2679528
0.06300092 0.40584203 -0.28675014
0.04345553 0.29392065 -0.25738502
0.13889948 0.09670520 -0.16856706
0.25404472 -0.00158700 -0.09235355
-0.01460012 0.29844591 -0.24569258
0.16225965 0.00143771 0.10206729
0.42904746 0.24800193 -0.24204119
-0.15298421 0.11816689 -0.17677187
0.23276323 0.00112700 0.14129494
0.01273258 0.00152911 0.09787885
0.10518875 0.00159600 0.0725201
0.38289007 0.11145973 -0.17420772
0.12785361 0.17808879 -0.19968002
0.07698426 0.14475259 -0.18693559
0.4023883 0.03414582 -0.15076943
0.36322666 0.23112862 -0.23607033
0.33706952 0.00851839 -0.13485322
0.24453506 0.32360019 -0.25530907
-0.03146498 -0.00158700 0.25636485
0.27309509 0.00040750 -0.13315126
-0.05830601 0.00159600 -0.05427496
0.24105381 0.25094444 -0.22753276
-0.20164373 0.17736302 -0.21558434
0.18282137 0.18357031 -0.20177561
0.406427 0.11170063 -0.18777203
0.0776563 -0.00158700 -0.10336661
0.26169674 0.10260530 -0.17082267
-0.18462659 -0.00158700 -0.06379141
0.00815379 0.00159600 -0.0085354
0.43229597 0.20982928 -0.22819296
-0.09342232 0.34329311 -0.27241472
0.1450158 0.39244069 -0.28162681
0.06619482 0.00153973 0.09714556
0.30076706 -0.00158700 0.27554729
-0.05459534 0.30652096 -0.26142898
-0.13169076 0.05230767 -0.15984608
0.28318314 -0.00158700 0.23815994
-0.17800191 0.05185866 -0.15142222
0.17998931 0.33441817 -0.26977885
-0.03381772 0.36795984 -0.27226777
0.03911035 0.18829294 -0.20358107
0.44455055 0.22586459 -0.23412348
0.29563731 0.09278328 -0.17923781
0.41500718 0.19497191 -0.22253738
0.45047399 0.28348777 -0.23430602
0.45047399 0.02737717 -0.13945351
0.19653555 0.03547358 -0.15143299
-0.09398502 0.00112700 0.179808
-0.17199464 0.17554167 -0.21486516
-0.04892843 0.25090603 -0.22751807
0.10898947 0.30022013 -0.24637087
0.37192602 0.31844160 -0.26503379
0.36846873 0.14567854 -0.20255465
-0.09493339 0.18702776 -0.2030974
0.35268009 0.00159600 0.01723957
0.22233093 0.01051191 -0.1384797
-0.04263698 0.00130806 0.11313467
-0.203888 0.14973986 -0.1978684
0.38691951 0.16515492 -0.1947354
0.09406435 0.00112700 0.16891732
-0.06534411 0.00112700 0.13337544
-0.203888 0.25849449 -0.22124482
-0.067662 0.10314276 -0.17102814
0.15043162 0.00112700 0.04097381
0.25973593 0.14282039 -0.20135323
0.34604957 0.10445920 -0.17153142
0.13211036 0.03831924 -0.15285515
-0.18495789 0.22224675 -0.21656162
0.05162655 0.00112700 0.15842626
0.02783512 -0.00158700 0.28372449
-0.18469296 0.38554365 -0.27899007
-0.1047582 0.32330032 -0.25519443
0.32490147 0.07347103 -0.17010892
0.38944473 0.30240515 -0.2472062
0.25648937 0.00159600 0.00719595
0.06106831 -0.00158700 0.297801
0.27367172 0.17512096 -0.19854542
0.16248723 0.00112700 0.13710019
-0.17135842 0.25204695 -0.24343755
0.20891047 0.24084077 -0.23956913
-0.17351461 0.31844689 -0.25333896
-0.1283838 0.35757565 -0.26829789
0.15624091 0.36302260 -0.2778643
0.39278933 0.13616431 -0.18365229
0.45047399 0.13623980 -0.17534442
0.31274599 0.00112700 0.17232554
-0.17376717 0.30631712 -0.24870174
0.24809664 -0.00158700 0.31246736
0.14104998 0.00308576 -0.12273257
-0.04802451 0.00159600 -0.00075446
-0.11932687 0.00159600 0.06565253
-0.01582277 0.36316175 -0.27790234
0.32602134 0.00159600 0.05122582
-0.14031 -0.00112439 -0.04311791
0.07483087 0.38309331 -0.28333362
-0.17972885 0.04634240 -0.14931335
-0.02953519 -0.00158700 0.23783861
0.19070653 0.26152132 -0.24670814
0.2507087 -0.00158700 -0.11569835
-0.16468489 0.19200727 -0.22136676
0.25420152 0.37174908 -0.28024994
0.31082343 0.33490945 -0.2596326
-0.13993704 -0.00158700 -0.08443663
-0.14334171 0.07655499 -0.16086363
-0.10939741 -0.00075000 0.10667979
-0.08358655 0.12282058 -0.19273476
0.31959981 0.23779440 -0.2225055
0.01413422 0.00112700 0.16530693
-0.18582104 -0.00158700 0.08243676
-0.03597809 0.31976323 -0.26542632
0.03925305 0.00159600 0.01375562
-0.1603518 0.32719146 -0.26763251
0.29831231 0.09010176 -0.17797026
-0.01260201 0.26148127 -0.23156099
-0.02181354 0.00159600 -0.05017579
0.10203824 0.12643376 -0.19434729
0.29799734 0.11773648 -0.19046577
-0.16795223 0.26827306 -0.24903887
-0.13135358 -0.00158700 -0.07336838
-0.04162879 0.15342865 -0.19025245
0.15133183 -0.00075000 0.26763176
0.32199852 0.18166230 -0.21728195
0.42351773 0.34936920 -0.26516057
0.35225918 0.19735954 -0.22348016
0.28640353 -0.00158700 0.28150045
0.2162176 0.19933973 -0.20780426
-0.00304939 0.18599159 -0.20270127
0.37484177 -0.00158700 0.25221686
0.43895799 0.11305768 -0.16552695
-0.15189709 0.15199678 -0.18970505
-0.14086428 0.19213023 -0.20504807
0.27861115 0.00112700 0.12734952
-0.08636075 0.15523824 -0.19094425
0.14723299 -0.00075000 0.27258531
-0.17899164 -0.00158700 0.13976345
0.41522362 -0.00158700 -0.05398087
0.09571249 0.21497074 -0.21378
0.16093633 0.39515163 -0.2826632
-0.203888 -0.00841426 -0.03476016
-0.18145287 -0.00158700 -0.03456833
0.02051192 0.04273120 -0.14793279
0.42206789 -0.00158700 0.32090289
-0.14614151 0.35673862 -0.2679779
0.16658026 0.14830519 -0.20365877
0.21597917 0.03286266 -0.15012815
0.02821409 0.29364734 -0.24385808
-0.05237733 0.10620934 -0.18532132
-0.05497761 0.12971684 -0.1958125
-0.19034203 0.16339083 -0.21000004
-0.14721173 0.27342586 -0.25080741
-0.02624233 0.00159600 0.06634109
0.05678737 0.00120188 0.1204632
0.14020187 0.01317902 -0.13988616
0.28147879 0.26629930 -0.23340292
0.22425378 0.02085263 -0.1395686
0.27908654 0.33078696 -0.25805657
-0.08751851 0.20905785 -0.21151951
0.41065402 0.07556633 -0.17109936
0.40752566 -0.00158700 -0.10868387
0.0554847 0.15663306 -0.1914775
0.37334004 0.17852845 -0.21604452
0.05289504 -0.00158700 -0.08874183
0.42216626 -0.00158700 0.17153249
0.24740618 0.33193190 -0.26904043
-0.15177774 0.09203332 -0.1788833
-0.00448442 0.00159600 0.04920321
0.42271793 0.00583281 -0.13601223
0.30351222 0.01997404 -0.14346943
0.04541265 0.28354340 -0.25405454
0.15008487 0.23630370 -0.23798428
0.35240168 0.33415983 -0.25934602
0.32392098 -0.00158700 0.24689771
0.11965043 0.27169121 -0.25021883
-0.07827915 0.05641032 -0.16189645
-0.1728539 -0.00158700 0.16033994
0.02586417 0.33453117 -0.26981241
0.29038678 0.20052318 -0.2082567
0.25453388 0.34560905 -0.27310256
0.31786328 0.00850541 -0.13484826
-0.00483265 -0.00158700 0.30222064
-0.14228946 0.40386196 -0.28599316
0.35032225 0.00112700 0.17372376
0.38803126 0.05247612 -0.15993027
-0.17665011 -0.00471000 0.05058838
0.32533301 0.29957708 -0.24612503
0.45047399 0.18519224 -0.21075248
0.20575243 0.00988922 -0.13036376
0.02376625 0.03008324 -0.14873909
0.1328656 0.41650152 -0.28432914
0.43229426 0.02653868 -0.14174238
0.18356058 0.06395230 -0.16560941
-0.10223204 0.00159600 0.000187
-0.19239608 -0.00406400 0.04854984
0.1171985 0.00112700 0.13643882
-0.10245884 0.00159600 -0.01828254
-0.09381423 0.35252956 -0.27499571
0.13169567 -0.00075000 -0.09152195
0.15581658 0.02584274 -0.14656422
-0.03356345 0.12500997 -0.19371186
0.35633447 0.25518786 -0.24452181
0.16889467 0.20221660 -0.22537748
0.40043649 0.32311508 -0.26642182
-0.18908399 0.07023239 -0.15319689
-0.04918181 0.29021680 -0.2561963
0.00508172 -0.00075000 0.10805136
0.13950487 0.33157088 -0.2689332
0.13577552 0.09393839 -0.17978383
-0.00855861 -0.00039763 0.203372
0.03602133 0.02043003 -0.14370989
0.43609695 0.05985278 -0.16361687
0.05753657 0.17776783 -0.21574418
0.28150817 0.13821890 -0.18443776
0.12918291 0.41580897 -0.28614096
-0.01985029 0.17752086 -0.21564666
0.34526147 0.34264301 -0.27222164
-0.04214963 0.00159600 -0.01900606
-0.01697902 0.20496636 -0.20995532
-0.00059529 0.15247731 -0.18988875
0.08233693 -0.00158700 0.22084213
0.22263173 0.00159600 -0.00098072
0.2692517 0.38884134 -0.28477086
0.43655737 -0.00158700 0.30491382
0.34509016 0.00159600 0.05563188
0.01424282 0.00159600 0.06051606
0.45047399 0.36953256 -0.26350241
-0.03894725 0.01132937 -0.12659658
0.07253437 -0.00158700 -0.10297536
0.10107201 0.20870253 -0.22777624
0.08700691 0.00018900 -0.06317585
0.43895799 0.03122220 -0.13788656
0.06653072 0.23196873 -0.22027834
0.32196811 0.35440663 -0.26708638
0.30829192 0.00112700 0.11781631
-0.00143516 0.24323033 -0.24039402
0.06859137 0.00159600 0.06826834
0.15871021 0.03180653 -0.14375628
0.06083906 0.12518230 -0.19378878
0.29542431 0.04973903 -0.15856237
0.28268541 0.20092413 -0.22488767
0.10364777 0.09460143 -0.18009725
-0.203888 -0.00653400 -0.05083496
-0.09603294 0.24374259 -0.24057086
0.30423734 0.25557527 -0.24465554
0.25748702 -0.00158700 0.27722917
0.37449297 0.36588939 -0.27147624
0.36359628 0.00112700 0.17084157
-0.10892971 0.23922581 -0.22305272
-0.03433762 0.37718990 -0.28173735
-0.03415598 -0.00075000 0.09499518
0.2672552 0.37907409 -0.28225245
0.3710852 0.00888303 -0.1249489
0.35369763 0.00159600 -0.0137957
0.38419884 -0.00158700 0.07481703
0.17326394 0.00198492 -0.12231171
0.3529797 0.14332763 -0.18639083
0.33647634 0.00112700 0.14352899
0.03951113 0.42243997 -0.28396862
0.45047399 -0.00268396 0.00934024
0.09718521 0.03359224 -0.14443896
-0.17451246 0.00944735 -0.13151963
0.03030481 -0.00075000 0.12442647
0.14667299 0.00798341 -0.13714632
0.35376536 0.00159600 -0.05598106
0.26689784 0.08009826 -0.1732416
-0.16549667 -0.00623434 0.32840499
0.01832803 0.21607804 -0.23050401
0.33164902 0.00159600 -0.00606514
-0.15179068 0.09649737 -0.1684876
0.44704461 -0.00158700 0.01939349
0.05071866 0.25069745 -0.22743833
0.12502258 0.00112700 0.15534893
-0.0589162 -0.00158700 0.30540104
-0.15818994 0.13844314 -0.19951325
-0.06920579 0.19241383 -0.20515649
-0.02253948 0.11373030 -0.17507575
-0.17786747 -0.00158700 0.17556378
0.37333599 0.17678969 -0.21535795
-0.18908399 0.22408169 -0.20883899
-0.03249622 0.24500590 -0.24100695
-0.19252097 -0.00158700 -0.08426812
-0.03956864 0.27358710 -0.23618905
-0.08398956 0.21288864 -0.22932444
-0.203888 0.23745982 -0.22793979
0.3598121 0.39540833 -0.28641287
-0.0511447 0.41700040 -0.28302402
-0.18908399 0.15445131 -0.18119077
0.15817833 0.31187848 -0.26308454
0.00728638 0.00159600 0.02426659
0.38948509 0.28953172 -0.25597643
-0.04799235 0.36744546 -0.27907342
-0.13849072 0.00018900 0.16573723
0.11633196 0.03005878 -0.14872687
0.17277556 -0.00158700 0.20688013
0.09824634 0.26066366 -0.23124842
-0.0104161 0.00112700 0.14715884
0.40898997 -0.00819463 0.32840499
0.19716329 0.00255935 -0.13428601
-0.12668357 0.05196260 -0.15967363
0.44064025 0.03625465 -0.15182335
0.33271268 0.09598794 -0.16829285
-0.11419115 0.31920352 -0.26526008
0.10007544 0.00159600 0.02908082
0.1881108 0.27433564 -0.25109939
0.41696435 0.14537312 -0.18717282
0.07498526 0.35046197 -0.26557833
0.33434165 0.00159600 0.03958264
-0.16822598 0.33187788 -0.25847363
0.24969715 0.12211028 -0.17827943
0.31212356 0.29018463 -0.25618598
0.42055161 0.38577032 -0.27907673
0.19351787 -0.00158700 -0.10706094
0.10444493 0.37958352 -0.27671151
-0.09470054 0.38057443 -0.28266261
0.01314236 0.34582722 -0.27316343
-0.03509507 0.39591726 -0.28654013
0.15664449 0.37513924 -0.28117674
0.41487249 -0.00158700 0.29179835
-0.08139729 0.09178958 -0.17876808
0.03901015 0.00112700 0.13202968
0.4317281 0.41902758 -0.29231864
0.0211393 -0.00075000 0.10408185
0.12997559 -0.00075000 0.26639264
0.26354145 0.14981852 -0.2042949
-0.10627456 0.35519270 -0.27572376
0.04203736 -0.00158700 0.31122562
-0.17325705 0.10472674 -0.1716337
0.24656326 0.12511181 -0.19375732
-0.19570063 -0.00158700 -0.06286228
0.37281982 0.00159600 -0.03685797
-0.13995269 0.06478037 -0.15636219
0.09047589 0.00159600 -0.01247948
0.01633473 0.33056379 -0.2686341
0.12927173 -0.00028000 0.32158077
-0.01805515 0.02746607 -0.14209692
-0.10859059 0.18174375 -0.21731412
0.2493231 0.30694202 -0.26156411
-0.08775578 0.32583074 -0.25616181
-0.04234296 0.23574390 -0.23777725
0.02048552 -0.00158700 0.23122631
0.01094957 0.12026736 -0.19159528
0.21885379 0.03469597 -0.14486092
-0.00640393 0.38627507 -0.27926969
-0.12892249 0.07016376 -0.16854557
-0.0801436 0.34449865 -0.27277277
0.15402535 0.00159600 0.02732658
-0.130697 0.00063107 0.12974682
-0.01709552 0.00518078 -0.13566839
0.21924002 0.00112700 0.04632925
-0.11342392 0.00114198 0.12459709
0.40885524 -0.00158700 -0.03718932
0.36814297 0.21345690 -0.21320126
0.21948606 -0.00075000 0.12544456
-0.06066381 0.04606389 -0.15672566
0.41657439 0.19341199 -0.20553809
0.25162931 0.17705998 -0.21546468
-0.12443645 0.25586295 -0.2294131
-0.01228278 0.40240842 -0.28543747
-0.03310766 0.15376334 -0.1903804
-0.18908399 0.37902881 -0.26766507
0.23206455 -0.00158700 0.28800479
-0.17273226 0.05514923 -0.16126619
-0.15571953 0.08218144 -0.17422632
-0.07910507 0.13020951 -0.18137576
0.17274879 0.39982463 -0.28444969
0.14124636 -0.00075000 0.26613981
-0.03242716 0.35386315 -0.27536029
0.2517676 0.26209323 -0.24690557
-0.12800564 -0.00158700 0.26829012
0.1348203 0.18659724 -0.21923056
0.40487496 -0.00158700 -0.02171908
0.02528944 0.19981882 -0.20798742
-0.04359631 0.20293397 -0.20917834
0.29254926 0.02123412 -0.13971445
-0.08413866 -0.00158700 0.25652997
0.00333381 0.27096707 -0.23518741
0.01492516 0.23068217 -0.21978649
0.0074338 -0.00267561 -0.13152542
0.25304047 0.29851092 -0.25885822
-0.02893171 0.00580104 -0.13599547
0.17030609 0.13360266 -0.18267297
-0.02557804 0.13089839 -0.19633981
0.44612479 0.07122511 -0.14878214
0.18180755 0.23873786 -0.22286618
0.10620887 0.06088074 -0.15487136
0.43774688 0.16347136 -0.21003389
0.2516992 0.00159600 -0.04659431
0.36759458 0.14675791 -0.18770222
-0.04347189 0.14290080 -0.18622765
0.14842156 0.34580254 -0.27315668
0.22399361 -0.00158700 0.21307057
0.02320728 0.34002768 -0.2615893
0.07947059 -0.00108164 0.26533145
0.28693345 0.38136709 -0.27739337
0.02863905 0.37176507 -0.28025431
0.36126778 0.35903330 -0.26885515
0.12246243 0.25332169 -0.22844158
-0.03101997 0.17924968 -0.20012383
-0.0516452 0.39155853 -0.28128955
0.11010323 0.00018900 0.2030989
0.00678926 0.00967254 -0.13093057
-0.18908399 0.17325137 -0.19199271
0.0606093 0.00159600 -0.02046274
-0.16968682 -0.00724178 0.32840499
0.19206256 -0.00158700 -0.07706593
-0.15240095 0.41018094 -0.29010663
0.23737918 0.36950711 -0.27285929
-0.10737596 0.00143168 0.10460277
-0.16788174 -0.00158700 0.07512161
-0.12140012 0.00872341 -0.12025216
-0.15039229 -0.00158700 0.30379134
0.37374366 0.17280842 -0.21378591
-0.07464696 0.23342788 -0.22083617
-0.13688213 0.39588698 -0.28294432
0.44573915 0.41114270 -0.2903471
0.13000928 0.32040189 -0.25408636
0.17569944 0.00112700 0.18649114
0.2647303 0.28736918 -0.25528239
-0.12758424 0.28717155 -0.25521896
0.02631982 0.19423574 -0.2222467
0.33383266 0.14023266 -0.18520762
0.02243598 0.40256290 -0.28820181
0.44792886 -0.00158700 0.30998181
-0.12301653 0.07674549 -0.16093646
0.23770715 0.15980921 -0.2084945
0.14509203 0.27713048 -0.25199637
0.44103748 0.10091888 -0.18296023
0.20554342 -0.00158700 0.28687238
-0.18922967 0.15142805 -0.17944357
0.19592649 0.10375615 -0.17126264
0.05210644 -0.00158700 -0.11073538
-0.13049961 0.01273045 -0.13646349
0.240899 0.06963250 -0.15821716
0.10897037 -0.00028000 0.31800524
-0.05841706 0.08297943 -0.16331969
-0.1197932 0.00112700 0.15027367
0.38391552 0.00018900 0.14151188
-0.12441508 0.23292711 -0.23673548
-0.01345095 0.30254454 -0.24725949
0.29636615 0.00159600 -0.05693047
0.23178322 0.00112700 0.12274852
0.45047399 0.38934382 -0.28005246
0.10224943 0.21336769 -0.21316716
0.45047399 0.12554352 -0.18298948
0.355165 0.36604070 -0.27868938
0.20994425 0.34686750 -0.27344782
0.08851662 0.40404957 -0.28857354
-0.140094 -0.00158700 0.2695972
0.23704392 0.12540240 -0.179538
0.20533106 0.09071564 -0.17826044
-0.09660012 0.00159600 -0.02678161
0.25144441 -0.00158700 0.27485404
-0.02464818 -0.00075000 0.10731689
0.31523721 0.00112700 0.18290877
0.03007564 0.00159600 -0.01311158
0.16791011 0.28349685 -0.2540396
0.23770284 0.39772803 -0.28364816
-0.11749326 0.07846651 -0.17247028
0.35092864 0.00112700 0.09361681
0.11109703 0.33408602 -0.2696802
0.007172 0.01766018 -0.14224925
0.08548877 0.22291425 -0.23303232
-0.18780526 -0.00158700 0.05256548
0.39097528 0.10202300 -0.18345299
0.4189755 0.03633902 -0.15186551
0.21988123 0.03389572 -0.15064443
0.16956921 0.00112700 0.08849434
0.25320281 0.01843664 -0.1426587
0.34044712 0.00112700 0.12629461
0.09373878 0.13976894 -0.18503034
0.07969565 0.02929564 -0.14279637
0.44625873 0.06544867 -0.14657381
0.14798276 0.00148025 0.1001455
0.15405213 0.20916795 -0.22794838
-0.00528449 0.40623113 -0.28911901
0.30338845 0.00112700 0.12445312
-0.0942462 0.30722789 -0.26165586
0.21295386 0.00112700 0.16951622
0.0711595 0.12344515 -0.1930135
0.04630752 0.21001957 -0.22826334
0.35372898 0.00112700 0.11124856
-0.12336098 0.39260258 -0.28571132
0.45047399 0.30069447 -0.23779609
-0.01389107 0.00112700 0.1829709
-0.17067433 0.06439377 -0.15621439
0.24683348 0.00159600 -0.02927491
-0.07819011 0.04397472 -0.15568157
0.38776072 0.05326407 -0.16032406
0.00617063 0.11691597 -0.19009959
0.35953244 0.32546185 -0.26711882
0.04749129 0.29892579 -0.24587604
0.42222489 -0.00158700 0.10109269
0.12846775 0.00159600 0.07829321
0.11189164 -0.00158700 0.23752087
0.24257587 0.07004636 -0.16849008
0.19290004 0.21433490 -0.21353692
0.06829264 0.19004402 -0.22059156
-0.00837804 0.00159600 0.04936143
0.06250855 -0.00158700 0.32342888
-0.15179807 0.07160154 -0.15896992
-0.0378476 0.34817372 -0.27380491
0.22007725 0.24765432 -0.22627494
0.01500349 0.14518595 -0.20234759
0.44180002 0.03570920 -0.1352045
-0.203888 -0.00285783 0.23511504
-0.04890199 0.25080543 -0.24300897
0.31473466 0.15529529 -0.20659707
-0.15952107 0.08388929 -0.17503362
-0.13617219 -0.00363401 -0.13102002
-0.02022142 0.29343831 -0.25723022
-0.16924543 0.05805932 -0.16272056
0.39708737 0.04822988 -0.15780815
0.24720644 0.00112700 0.07446516
0.19838361 0.38581862 -0.28401506
0.38943147 -0.00158700 -0.03583158
0.1516065 0.00112700 0.13687527
0.1324661 0.38298697 -0.27801265
-0.00178428 -0.00158700 0.30579623
-0.13348721 0.07306845 -0.16991861
-0.05484021 0.10309889 -0.17101137
0.45047399 0.24159897 -0.23815973
-0.03303321 0.19465524 -0.22241234
-0.01560764 0.07132500 -0.16909449
-0.08660675 -0.00158700 0.24872152
0.39054422 0.30455007 -0.26079643
0.04358801 0.20869624 -0.22777392
0.05913135 0.07650582 -0.17154346
-0.09654796 0.00159600 0.07767258
0.4154429 0.41310323 -0.2895261
0.45047399 -0.00186185 0.23470174
-0.19540554 0.41203533 -0.27907323
-0.08931674 0.25069411 -0.22743705
-0.20367499 0.06308222 -0.16519812
0.33072343 0.40732531 -0.2893926
0.45047399 0.26417926 -0.23908028
0.16191003 0.02115087 -0.14409002
-0.18027828 0.03365482 -0.15052404
-0.1337172 0.26134097 -0.24664589
0.16238692 0.21456808 -0.21362607
0.12874192 0.06089850 -0.15487815
0.21884747 0.06954659 -0.15818431
0.44274626 0.23241451 -0.21040457
-0.17412863 -0.00158700 0.3080829
-0.15908391 -0.00158700 0.0195782
0.38538839 0.03223691 -0.14392081
-0.203888 0.34302525 -0.25508296
0.3153361 0.00112700 0.06211186
0.1194413 0.20717682 -0.22721198
0.02048517 0.08451599 -0.16390712
0.43895799 0.14249356 -0.18231839
0.4219075 0.39895866 -0.28411863
0.21131577 0.10848406 -0.1863365
0.109656 0.09594614 -0.18073289
-0.19510553 -0.00158700 -0.06073786
0.24408524 0.23474813 -0.2213409
-0.18814394 -0.00406400 0.05417619
0.00972879 0.27713580 -0.25199808
0.14533342 0.20237234 -0.20896363
0.07076185 0.00159600 0.02285875
-0.02492669 0.09711907 -0.16872528
0.38436047 -0.00158700 0.07997439
0.44102868 0.34836858 -0.27385818
0.10147226 0.00159600 0.03319482
0.43460247 0.02632988 -0.14166256
0.26909159 0.00112700 0.18715047
0.15590406 -0.00158700 0.2582364
0.03419773 0.00112700 0.19190444
0.37134505 0.01076902 -0.12806237
0.14921586 0.00112700 0.17057256
0.07389904 0.00132949 0.11165563
-0.142671 0.24633417 -0.22577025
0.14516767 0.08380985 -0.16363716
0.21295787 0.03218524 -0.1497896
0.44167554 0.14292172 -0.20139582
0.1957187 0.27010904 -0.24967266
-0.13118944 0.32264740 -0.25494481
0.26950336 0.10703571 -0.17251641
0.45047399 0.37243946 -0.27522109
-0.14571228 0.10191002 -0.17055686
-0.18923565 -0.00158700 0.22964505
0.16649979 0.20075342 -0.20834472
0.0797689 0.42225445 -0.28298005
0.26520738 0.20745996 -0.21090863
0.21427759 0.05907714 -0.16322923
0.37544469 0.18060655 -0.21686508
0.06591855 0.00159600 0.03063008
-0.08067095 0.13531142 -0.19819682
0.4373455 0.12280851 -0.19272937
-0.1165167 0.12527999 -0.19383237
-0.13865043 0.00018900 0.16219775
0.28902888 0.04796087 -0.14993209
-0.14534536 0.14697555 -0.18778542
0.11802633 -0.00158700 -0.08278653
0.22476665 -0.00158700 0.25561146
0.24102649 0.00392604 -0.12305382
-0.18908399 0.17219099 -0.19353738
-0.20173064 0.29212899 -0.25681
0.05747806 0.35997604 -0.26921556
0.15493118 0.31644889 -0.25257513
0.33174658 0.26309676 -0.23217859
0.29721892 -0.00158700 0.30224769
-0.19433462 0.34675194 -0.25411552
0.22305785 0.00112700 0.05468229
-0.08325089 0.40014061 -0.28457049
-0.00231849 0.37508581 -0.27499203
0.05052237 -0.00158700 0.25804744
0.06046893 0.02516820 -0.1462085
0.06723777 0.07658248 -0.16087414
0.29144189 0.14846817 -0.20372728
-0.13198105 0.26681548 -0.23360026
0.03332831 0.08475631 -0.17544346
0.33805736 0.00112700 0.13815852
-0.10893353 0.24037699 -0.23940904
0.37855135 0.09601308 -0.18076453
0.32435364 0.13659146 -0.19873489
0.14201439 0.03904990 -0.14652542
0.44924432 -0.00158700 -0.03327512
0.1339129 0.18934335 -0.22031489
0.37778295 0.00018900 0.15603927
-0.14332827 -0.00158700 0.10580266
0.28641091 0.29172209 -0.24312206
0.1797709 0.05213361 -0.1597591
-0.16716095 -0.00158700 -0.00770199
-0.18208813 0.41129257 -0.29038458
0.1157617 0.19605797 -0.20654964
0.30124369 0.21439172 -0.22988034
-0.10107537 0.08949156 -0.16580928
-0.18908399 0.35069959 -0.25827559
0.43895799 0.14745687 -0.17862746
0.28456845 0.08917525 -0.17753229
0.3627866 -0.00158700 0.22241315
0.42482376 -0.00158700 0.17664596
-0.19629248 -0.00158700 -0.0989124
0.37049838 -0.00092488 0.203372
0.34945423 -0.00265550 0.32840499
-0.09205418 0.03119068 -0.14352084
-0.1203177 -0.00158700 0.32595378
-0.10858017 0.00129422 0.11409015
0.05198148 0.22354067 -0.233264
0.01075697 0.00159600 -0.04075047
0.34486446 0.26972458 -0.24953995
0.39153001 -0.00158700 0.3073225
-0.18680376 -0.00158700 0.11939259
0.33429639 -0.00158700 0.21086933
0.07924128 0.39247403 -0.28567918
-0.07823309 0.38301827 -0.28331486
-0.00406734 0.00112700 0.1809177
-0.07219278 0.00018900 0.19728883
-0.15843186 0.25468312 -0.24434757
-0.19425643 -0.00158700 0.29254063
-0.20358028 0.09282175 -0.15703846
0.36918182 -0.00158700 0.226788
-0.08778025 0.17106931 -0.21309921
0.00340992 -0.00158700 0.29229951
0.36616694 0.33780350 -0.2707843
0.33726525 0.06786371 -0.16745833
0.42142038 0.00387324 -0.13497887
0.32222168 0.01907652 -0.14299613
-0.17711663 0.03284861 -0.15012113
-0.08586646 0.36385095 -0.27809075
0.26504789 0.00159600 -0.0613789
-0.1120141 0.41561583 -0.28664622
0.04111024 0.06778178 -0.15750963
-0.15520732 0.22819102 -0.21883412
0.16851165 0.05146475 -0.15127162
-0.10987656 -0.00075000 0.10975627
0.24733739 0.26660536 -0.23351993
-0.10898459 0.20072338 -0.20833323
0.43028407 0.27283254 -0.25061282
0.37656311 0.42171502 -0.2858652
0.37189394 -0.00158700 -0.09089586
-0.10025056 0.40597737 -0.28905556
0.04489311 0.00124801 0.11727918
0.16103969 -0.00453989 0.32840499
0.28289064 0.20152703 -0.22512245
0.44434363 0.09592397 -0.18072241
-0.08974277 0.13697468 -0.19889597
0.09116098 0.17862279 -0.19988417
0.43815229 -0.00158700 -0.08642816
-0.10993129 0.14533627 -0.20241078
-0.09623308 0.20268955 -0.2090849
0.09093608 0.25524173 -0.2445404
0.42608622 0.38261024 -0.27786863
-0.04455867 0.00112700 0.18187727
0.05782204 0.00159600 0.08574331
-0.11646243 0.17934208 -0.20015916
-0.02023865 0.31428770 -0.26380008
0.18732341 0.27895654 -0.25258243
-0.04375105 0.39412598 -0.2822711
0.34238219 0.05602579 -0.15301531
0.41005441 0.41002049 -0.29006651
-0.09854129 0.14480413 -0.18695529
0.45047399 0.20203636 -0.21194513
0.13862092 -0.00024881 -0.12145775
0.35590782 0.19732336 -0.22346587
-0.07972738 0.12969102 -0.18117754
-0.17286415 -0.00158700 0.29010654
0.31695293 -0.00158700 0.26545592
0.08838167 0.32574524 -0.25612912
-0.00929582 0.17542106 -0.19866015
0.1228687 0.00159600 0.09024974
-0.1692549 -0.00158700 0.00169731
0.24694049 0.35952385 -0.27690781
-0.02199924 0.00159600 0.02304827
0.31512036 0.38881569 -0.28476445
0.34298648 0.21752509 -0.23103919
0.18753717 0.00099221 0.125631
0.1250657 0.25961557 -0.23084773
0.42779636 0.38103383 -0.2827882
0.12415521 0.30474175 -0.24809948
0.36032187 0.01940410 -0.13901483
-0.11373272 0.26446443 -0.24772412
0.22437393 0.00159600 -0.04622442
0.00662738 0.31283261 -0.26336792
0.01950495 0.32641477 -0.26740183
-0.12764053 0.00159600 0.07128146
0.4007898 0.21303014 -0.22937677
0.35416948 0.35152269 -0.26598385
0.31681963 0.18996303 -0.22055957
0.21014871 0.09667367 -0.18106563
0.08113875 0.42169614 -0.28591459
0.20542646 0.35123554 -0.27464195
-0.08493737 0.00846966 -0.13407708
-0.09888941 0.10340708 -0.18407069
-0.0785666 0.18975255 -0.20413908
-0.03462521 -0.00075000 0.12451365
0.11748769 -0.00075000 0.11518717
0.22602361 0.04643909 -0.15691317
-0.04236493 0.00159600 0.02314743
0.35149325 0.23417881 -0.23719841
0.16124554 0.34243902 -0.26251116
0.21476641 0.32261479 -0.26627324
0.06868317 0.10123030 -0.17029701
0.42915831 -0.00158700 0.25675498
0.24288587 0.00159600 -0.00361236
-0.01524907 0.30459172 -0.2608098
0.24302724 -0.00158700 0.21429723
-0.00553773 0.05268850 -0.15173946
-0.10970328 0.31007629 -0.25013888
0.09052845 0.00018900 0.19908129
0.01831938 0.00018900 -0.06617584
0.00561977 0.13767888 -0.1842313
0.14920636 0.00159600 -0.02848639
0.17078083 0.06377184 -0.15597663
0.35976948 0.22961212 -0.21937741
0.13220576 0.00018900 -0.07025549
-0.04996821 0.10671477 -0.17239372
0.36675231 0.13996073 -0.18510366
0.04391795 0.03890038 -0.14646826
0.02879134 0.36288835 -0.27782759
-0.1779803 -0.00158700 -0.0525518
0.07099682 0.41134393 -0.29039742
-0.11334853 0.00018900 -0.0683654
-0.10792345 -0.00158700 0.3020305
0.09695913 0.00018900 0.19607516
0.30791185 0.36022321 -0.26931005
