# .PCD v0.7 - Point Cloud Data file format
VERSION 0.7
FIELDS x y z
SIZE 4 4 4
TYPE F F F
COUNT 1 1 1
WIDTH 1416
HEIGHT 1
VIEWPOINT 0 0 0 1 0 0 0
POINTS 1416
DATA ascii
-0.05283593 -0.17436901 0.05345122
0.02927469 0.16577600 0.07185378
0.0862566 0.43724000 0.03821445
-0.109324 0.18977850 -0.05469764
0.09624266 0.45398177 0.01853388
-0.07038905 -0.14068909 -0.138063
0.03534487 0.44378099 0.05078459
0.0304373 -0.11222700 -0.0169273
0.04169331 -0.34117100 0.03206544
0.03078651 -0.33462900 -0.10361993
0.05839254 0.05457500 -0.09140407
-0.11943747 0.45263089 -0.00676727
-0.00251557 -0.11173295 -0.134793
-0.04340685 -0.06996704 -0.138063
0.02084711 0.32603699 -0.10200852
0.06626004 -0.39677101 -0.0703219
-0.109324 -0.03103687 0.01311984
0.10929223 -0.33462900 -0.13705206
-0.106054 -0.00713690 -0.06260208
0.02993988 -0.11876800 -0.07325342
-0.03572436 -0.17436901 0.00677524
-0.01315869 -0.34117100 0.07527647
-0.08195814 0.15923500 -0.01007682
0.03629558 0.04803400 0.04028361
0.07351044 -0.26055515 0.077798
-0.10654163 -0.20894418 0.028739
-0.01213284 0.38108192 -0.147875
0.04535476 -0.11222700 -0.06469824
-0.109324 -0.26243965 -0.03391598
-0.09266406 -0.16782799 -0.03016423
0.00135144 -0.34117100 -0.02155696
-0.01841274 -0.17436901 0.00480052
-0.09191036 0.38817999 -0.15754003
-0.109324 -0.26559727 -0.0927113
-0.0432029 0.45629449 0.08197748
-0.00164988 0.44378099 -0.11760434
-0.10987317 0.45326781 -0.13124434
0.08490937 -0.11876800 -0.0919868
0.10192343 0.04209456 -0.138063
0.11962 0.34382666 -0.11909105
-0.109324 0.29105332 -0.10368603
-0.02591562 0.44378099 0.04179301
0.057478 0.15714194 0.07719933
-0.06891677 0.44378099 -0.06309271
0.04467738 0.43724000 0.10192577
-0.0402375 -0.16782799 0.04901564
0.10226071 -0.22342800 -0.11051449
0.07270762 0.16577600 -0.12394523
-0.11829152 0.44378099 -0.08174396
-0.02688407 -0.44352124 0.117046
0.06170993 0.44378099 0.05751366
0.08154639 0.15923500 0.0285697
0.02358743 -0.33462900 -0.04507858
-0.122407 -0.28856976 -0.10215939
0.04722307 0.38817999 -0.04760677
-0.10786361 0.44378099 -0.11678011
0.1065139 -0.39023000 -0.07604377
-0.05022109 -0.28557000 -0.07050632
-0.09292534 -0.17436901 0.01567404
-0.10708099 -0.39023000 0.01710086
-0.14458133 0.44378099 0.08026971
0.12598772 0.38817999 -0.00975981
0.04782848 -0.27902901 -0.06885633
-0.05147206 -0.28557000 -0.00943877
0.03999581 0.15923500 -0.01662904
0.08655909 0.23734066 -0.138063
-0.01590753 0.43724000 -0.10640407
0.02146014 -0.39677101 0.05417805
0.04188685 0.38163900 0.07062329
0.11962 0.35363093 -0.08092141
0.10777783 0.33257800 -0.08435838
0.0360304 0.16577600 -0.12492283
-0.0301855 -0.11222700 -0.12650178
-0.119136 0.38563133 0.07852673
-0.02377588 -0.39023000 -0.16245133
0.06457552 0.04803400 -0.10271719
0.03528888 -0.22342800 -0.13564622
-0.12792204 -0.39677101 0.10235228
0.103266 -0.28519833 -0.0632144
0.057478 0.20110896 0.0687958
-0.106054 0.16000627 -0.12330911
-0.12617629 0.38817999 -0.0715645
-0.129382 0.43724000 -0.12841912
-0.00670686 -0.17436901 0.07623137
0.08286445 -0.33462900 0.08717121
-0.135489 -0.34835912 -0.08140976
-0.10123501 -0.34117100 -0.14750566
0.01145955 -0.28557000 -0.0270648
-0.109324 -0.13145772 -0.08163309
-0.13406064 -0.39677101 -0.12535081
-0.00026924 -0.45237201 -0.04469892
0.1211206 -0.36449251 -0.16422801
-0.07783164 0.29936373 -0.138063
0.02377496 0.38163900 -0.00540485
0.11962 -0.31640613 -0.01132072
0.01986627 0.44378099 0.05494763
0.106537 -0.08161914 -0.08805666
0.00717202 -0.11222700 0.01367841
0.01704528 -0.27902901 0.06757594
-0.10332071 -0.22996899 0.07623122
0.07534112 -0.39023000 -0.11891185
-0.03027679 -0.11222700 -0.13134986
0.07820491 -0.45237201 -0.05517824
-0.06335293 -0.39677101 0.06710898
0.106537 -0.13670519 -0.00959894
0.12737757 -0.34117100 -0.12714705
-0.10724833 -0.42173229 -0.177311
0.12007527 -0.34117100 0.0472191
0.106537 -0.24101564 -0.04119536
-0.0521725 -0.23416156 0.077798
-0.06249518 0.15923500 -0.08136846
-0.05927224 0.05457500 -0.11021985
-0.03756272 -0.45237201 -0.08890863
-0.07657301 -0.11876800 -0.015314
0.1329136 -0.45237201 -0.069158
-0.01047469 0.16577600 -0.10243608
0.07631465 0.33257800 -0.14046043
0.06199218 0.16347332 0.074528
0.06865683 0.45535930 0.10399665
0.05634383 -0.10369273 0.077798
0.07152443 0.38817999 0.07854441
-0.04217302 -0.16782799 -0.05336362
0.01124817 -0.31914755 -0.147875
0.07156587 0.37522283 -0.15114599
0.08832083 0.16021561 -0.134793
-0.02931771 0.04803400 -0.1058541
-0.109324 0.31161867 -0.09754994
-0.00450145 -0.34117100 -0.14169475
0.11962 0.34141247 -0.0056411
-0.132219 0.40902828 -0.05401645
0.05436543 0.33257800 0.05524857
-0.00217041 -0.00294459 0.07593386
0.06423729 -0.11876800 -0.00553659
-0.06395719 0.32603699 0.05148412
0.00797129 -0.39023000 0.03141071
0.06089991 0.25447785 -0.138063
0.06046945 0.38817999 -0.01168365
-0.06309384 -0.34117100 -0.1161908
0.03175316 0.44378099 -0.08379169
0.13270199 -0.34507887 -0.11542078
-0.109324 -0.02086363 -0.12043451
-0.04945533 0.05457500 0.0562953
-0.06570484 -0.17436901 -0.13390381
0.12943099 0.42061815 -0.05873728
-0.06767568 0.32603699 0.03463409
-0.07012493 -0.33298172 -0.15114599
0.0921032 -0.33462900 -0.10576937
0.07810349 -0.33462900 -0.05370822
-0.109324 0.19263505 0.04071487
-0.03831443 0.04803400 -0.05786471
0.106537 -0.12711553 0.063005
0.01293075 -0.39023000 -0.15116408
-0.06797556 -0.22342800 -0.0615138
-0.10760563 -0.33462900 -0.12733625
0.116349 -0.33518588 -0.139195
0.11961947 0.38817999 -0.1267163
-0.09237651 -0.27902901 -0.00396364
-0.05200795 -0.28557000 -0.11174729
-0.09149027 0.45437305 0.00427003
0.07585963 0.33257800 -0.02271485
-0.00969813 0.43724000 0.03093233
0.04694814 0.05457500 0.07758809
-0.09277829 0.27867519 -0.138063
-0.06678861 0.05457500 -0.02313285
0.00220472 -0.17436901 -0.13506332
-0.0738244 -0.11222700 -0.10909357
0.00915745 0.45678352 0.07538224
-0.10349706 0.05457500 -0.05621994
-0.12107878 0.33257800 -0.06584524
0.014422 -0.11876800 -0.12693747
-0.0946708 -0.35093422 -0.16422801
-0.09093985 -0.33462900 -0.01958207
-0.00694256 -0.45237201 -0.08299972
0.00971544 -0.11876800 0.03638411
0.106537 -0.20889965 0.06498006
-0.109324 -0.05098488 -0.09198705
0.11874083 -0.44357661 0.117046
-0.10390368 0.44378099 0.0372732
-0.1048619 0.08158642 0.077798
0.01751208 -0.06562393 0.07485975
-0.06213771 -0.45237201 -0.02312935
0.05426083 0.45589067 -0.17685166
0.07036339 -0.34059879 -0.147875
-0.122407 0.36192546 0.0511981
0.03702397 -0.22342800 -0.03995334
0.13270199 -0.35490506 0.00695528
-0.01722303 0.32603699 0.01065276
0.05585651 -0.11876800 -0.10480968
-0.109324 0.29563920 0.00723581
0.00538531 -0.28557000 -0.09933584
0.00067408 -0.22342800 -0.10061537
-0.10674857 0.06611509 -0.138063
-0.109324 -0.13287052 0.01773804
-0.0693664 -0.11876800 -0.09292091
0.05718621 0.43724000 0.06739236
0.106537 0.13233182 -0.11639918
0.145785 -0.40294228 0.09397824
-0.01173 -0.28557000 -0.14135451
0.06718903 0.24191011 -0.138063
0.13054067 0.38817999 -0.04954837
-0.10829948 0.29928925 -0.138063
0.106537 -0.08067827 0.05294408
-0.04622761 0.44378099 0.01870891
0.05759864 0.32603699 -0.03327361
0.0823837 -0.37230879 0.100693
0.106537 0.10015650 -0.02286735
-0.01095237 0.38768132 -0.147875
-0.109324 -0.08334774 -0.10225396
-0.01298812 -0.22996899 0.0301568
-0.109324 0.01961152 -0.07114671
-0.109324 0.00394697 -0.01006227
-0.09630349 0.05457500 0.07675227
0.03089509 0.44378099 0.03640983
0.05592991 -0.39677101 -0.11617237
0.11113607 -0.33462900 0.05429301
0.07634634 -0.16782799 0.03741865
0.0099881 0.41684477 -0.16422801
0.0938364 -0.09014323 -0.138063
0.12943099 -0.39437812 -0.04894222
-0.07385521 0.26647342 -0.138063
-0.02966898 0.05457500 -0.11356394
-0.05095652 0.21821140 0.077798
0.04837066 0.15923500 -0.07627664
0.08075879 0.45478535 -0.07970726
-0.05441554 -0.16782799 0.01438664
-0.03166979 -0.25033904 -0.138063
-0.08125374 -0.07125469 -0.138063
0.02115151 -0.22169573 -0.138063
-0.08599808 0.44378099 -0.14743085
-0.135489 0.39728229 -0.01274087
-0.11638397 -0.34117100 0.04289809
-0.11933278 -0.39677101 -0.02318562
-0.00695077 -0.16655155 -0.138063
0.09304031 -0.39023000 0.06458913
-0.135489 0.43089124 -0.01109424
0.05884742 0.44378099 -0.16472445
-0.07402425 0.44378099 -0.10622715
0.02034337 0.43724000 0.00409289
0.08339092 0.43602805 -0.16095801
0.01220421 -0.10159273 0.08761
0.09401122 -0.16782799 0.05189638
0.00110468 -0.22996899 0.05488997
-0.109324 0.23430487 0.0197743
-0.06644591 -0.17436901 0.04107027
-0.06553386 -0.33462900 -0.07281389
0.04831724 -0.45237201 -0.15974596
-0.109324 0.00316941 -0.07397471
-0.04927257 0.32603699 -0.0757477
-0.0297082 -0.22996899 -0.1321427
0.02405154 -0.39677101 0.09192384
-0.03161785 -0.43157205 -0.177311
-0.09600011 -0.22996899 -0.08485992
-0.0848028 -0.30553423 -0.15114599
0.0901728 -0.28557000 -0.13395468
0.02093588 -0.27902901 0.02861637
-0.106054 -0.22846623 -0.05336848
0.10157693 0.10014772 0.077798
-0.122407 -0.30411071 -0.05938413
-0.05136345 -0.39677101 -0.13925133
-0.109324 0.24946012 -0.02898667
0.106537 -0.03380295 0.04883042
0.08227691 -0.17436901 0.00216698
0.09745517 0.05457500 0.04919092
-0.14828682 -0.41624235 0.067986
0.06235275 -0.16782799 -0.12274522
-0.1026498 0.01165443 0.077798
0.106537 -0.20387623 -0.07892626
0.02355971 -0.04334397 -0.138063
-0.106054 0.21739300 -0.08188124
0.07015127 -0.22342800 -0.00114072
0.10190299 -0.20690396 0.077798
0.00815837 -0.17436901 -0.03288171
0.11347291 -0.33462900 -0.14374213
-0.02425258 0.05457500 -0.05895667
0.10576592 -0.39023000 0.02102038
0.09852421 0.38817999 -0.05895128
-0.109324 0.28024175 0.04218237
-0.0213676 0.04803400 0.0666199
-0.06526271 -0.17436901 -0.00194813
-0.03816454 0.38163900 -0.06324289
-0.06162335 -0.45237201 -0.16179045
0.02366282 -0.39023000 -0.16143273
-0.08914826 0.45449459 -0.11104498
-0.01635237 -0.03513269 -0.138063
0.0031056 0.45682910 0.08665006
-0.09413698 0.38817999 0.10038702
-0.02521503 -0.16782799 -0.10209492
0.00795 -0.22996899 -0.09273798
-0.04355176 -0.41602055 0.113775
-0.109324 0.11595187 0.00074332
0.02430446 0.32603699 -0.00103279
-0.11806491 -0.34117100 -0.00966071
-0.01455409 0.33257800 -0.03805797
0.09077373 -0.39023000 0.0769197
-0.09090129 -0.05680428 0.074528
0.13270199 0.42037654 0.03661378
0.06720176 0.04803400 -0.04440578
0.106537 -0.27507792 0.01148943
0.11310272 0.38163900 -0.02113244
0.103266 -0.05855075 0.00149734
0.06710284 -0.22342800 0.02450636
-0.109324 -0.07716744 -0.0317182
-0.02919138 -0.22342800 -0.01607815
0.04608682 -0.45237201 -0.16645114
0.06081238 -0.16782799 -0.03166456
0.05397374 -0.28557000 -0.06112045
0.02346788 0.32603699 0.07241472
-0.06937347 0.09554636 0.077798
-0.0320379 0.16577600 -0.0285308
0.13270199 0.42962630 0.00227775
-0.01946604 0.42130673 -0.16422801
0.04141519 0.16577600 0.04041051
0.12018604 0.45239544 0.03007125
-0.13406067 0.45150692 -0.14372158
-0.03702862 0.16577600 -0.05434788
-0.03693771 0.05457500 -0.00385501
0.02957536 0.45653553 0.08099021
0.08237993 -0.17844302 0.077798
0.10058759 0.38817999 -0.11935915
-0.06236126 0.43724000 0.04412188
0.08687963 -0.22996899 -0.10182103
-0.07072464 -0.45237201 0.03438337
-0.109324 -0.13500352 0.04347403
-0.0242797 -0.06500280 0.08761
-0.09441926 -0.19239353 -0.138063
0.02410342 0.38817999 -0.068198
0.10593151 0.00361138 -0.082635
0.05057694 0.44378099 -0.02733387
0.11547418 -0.45237201 -0.05259224
0.05250885 -0.16782799 -0.09578728
-0.04587998 0.26250088 -0.138063
0.05814249 -0.11876800 -0.03258185
0.06571724 -0.11876800 -0.03618125
0.11152288 -0.39023000 -0.01038839
-0.05233555 0.04761747 -0.138063
-0.00456543 -0.17198866 0.074528
-0.06541641 0.05457500 -0.03275737
0.03481844 -0.17436901 0.02550464
0.07008175 -0.31586579 0.090881
0.00211625 0.45683655 0.06963863
-0.03831129 0.45640326 -0.17051026
-0.109324 -0.09514726 0.07662351
-0.00455015 -0.34117100 -0.01655757
-0.02946674 -0.22342800 -0.02780542
0.04826238 0.44378099 -0.17208653
-0.10117214 -0.34117100 -0.04307461
0.00586835 -0.11222700 0.05072006
-0.10857578 -0.34117100 -0.05754027
0.106537 -0.04319715 0.00736652
-0.10776119 0.38163900 0.04428618
0.06701232 -0.16782799 0.05773273
-0.06452201 0.26368229 0.077798
-0.1087567 -0.14352541 -0.138063
-0.00538819 -0.36516916 0.103963
0.106537 0.06270644 -0.07025623
0.08448498 0.45459197 -0.01237469
0.106537 0.19762990 -0.02324675
-0.03909357 0.45638586 -0.10843634
-0.01851247 -0.03137248 0.07243979
-0.148572 -0.44303572 0.00647453
-0.122407 0.35426302 0.04559168
-0.07164833 -0.16782799 0.0078267
0.08060439 0.22340040 0.077798
0.00911931 -0.30413059 0.08761
-0.109324 0.11426765 -0.00247155
0.06876789 0.33257800 -0.07482921
-0.06878107 0.05457500 -0.11631925
0.03571242 0.38163900 -0.14466998
-0.03078841 -0.11876800 0.02134293
-0.07532647 0.32603699 -0.11030488
0.106537 0.12340953 -0.03494337
-0.109324 0.00710592 -0.11771343
0.12943099 -0.39596085 0.07343819
0.06728517 0.43879361 -0.16095801
0.10399572 -0.22996899 0.04520374
-0.135489 -0.36648603 0.02317263
0.01484281 -0.11876800 -0.1366407
-0.06151837 -0.22342800 -0.11147096
0.06584218 0.03131349 0.077798
0.13270199 0.43202932 -0.10116169
-0.10531627 0.38163900 -0.12887087
-0.06457301 -0.40191897 0.117046
-0.0393373 0.15923500 -0.01825489
-0.10253283 0.33257800 -0.11069966
-0.10025282 0.08000295 -0.138063
-0.07052336 -0.22342800 -0.02346686
-0.122407 -0.32613234 0.06530913
0.105458 -0.45237201 -0.09648418
0.051709 0.15923500 -0.04584218
0.03411731 -0.33462900 0.03349691
-0.106054 -0.09440830 0.02745026
-0.08908033 -0.30325200 0.090881
0.02729925 0.16577600 -0.07111277
0.08494417 0.38817999 -0.15363863
-0.01531511 0.45675814 0.03253333
-0.09181057 -0.07947613 -0.138063
-0.09135973 0.44378099 -0.05651057
0.01383482 0.05871441 0.077798
-0.0748939 0.06424132 0.077798
0.04709557 0.43724000 -0.13748679
-0.02246048 -0.11222700 -0.01143062
-0.09666506 0.17813240 -0.138063
0.03815056 0.04803400 -0.02617192
-0.08362931 0.43724000 0.04528264
0.08085581 0.05457500 -0.05367943
-0.115215 0.45291208 -0.10147495
-0.11938305 0.45263451 0.08014158
-0.106054 0.23428675 0.02454398
-0.01521203 -0.11876800 0.05656356
0.103266 0.08175193 -0.08280952
-0.0126688 0.27017742 0.077798
0.02945631 -0.16782799 -0.01028667
-0.13927477 0.45108116 -0.07406855
-0.02160435 -0.27902901 0.06511484
0.03687826 0.06088856 0.077798
-0.104383 0.10475519 0.077798
-0.0921058 0.15923500 -0.06821942
0.02630022 0.43306509 0.100693
0.09514579 -0.16782799 -0.03628208
-0.109324 -0.21725320 -0.0748216
0.10787308 0.43724000 0.07987492
0.02669058 -0.28557000 0.03702653
0.10036196 -0.07480675 0.077798
0.07345474 -0.34117100 -0.16253548
-0.01929483 -0.21535043 0.077798
0.06119299 -0.34117100 0.09688203
-0.0099544 -0.22342800 -0.11864821
-0.10885304 0.21483600 -0.06977447
-0.08036794 -0.09256187 0.077798
0.05139581 0.33257800 -0.10035952
0.02083031 -0.23041738 0.077798
0.06613171 -0.17436901 0.04525121
-0.122407 0.35721319 -0.13380104
-0.109324 0.31869874 -0.02576658
-0.03166536 -0.34117100 -0.07144936
-0.109324 -0.17795367 -0.07653739
-0.05058529 0.45612925 -0.08601728
0.08666492 0.15923500 0.03108774
0.14065543 -0.39677101 0.03648131
-0.03510254 0.04803400 0.01222239
-0.08181658 0.45487509 0.09845797
-0.135489 0.41863117 0.0491859
-0.109324 -0.18635147 -0.05645567
-0.07652569 0.08088003 -0.138063
-0.08014934 0.43724000 0.0425508
-0.135489 -0.36213074 -0.10416297
-0.109324 0.20741717 -0.05845168
-0.00827085 -0.39677101 -0.02170609
0.10867518 -0.39023000 -0.10143604
-0.05274252 -0.28519604 0.077798
0.01040923 0.08513689 -0.138063
-0.07095193 -0.28557000 -0.08519914
-0.10631336 -0.00756700 0.05142852
-0.02608711 0.38817999 -0.11090225
-0.109324 0.19399171 0.00106415
0.08536262 -0.28557000 -0.00250677
0.10023695 -0.39677101 -0.01703555
-0.05630101 -0.22996899 0.02334506
0.02748875 0.04803400 0.07568188
-0.05358849 0.26097481 -0.138063
-0.10763007 0.21483600 -0.1227754
0.03868779 -0.39677101 -0.03049233
0.10234972 0.02728195 0.077798
-0.07193765 0.22309675 0.077798
-0.01830782 -0.17436901 0.05187714
0.04845992 0.44386162 0.117046
-0.03437209 -0.38516862 -0.16422801
-0.04711883 -0.45237201 0.02882328
-0.00378629 -0.17436901 -0.05791637
-0.04929147 0.45615911 -0.06004122
-0.09036521 -0.17436901 0.01669644
-0.04023924 0.38817999 -0.12055009
-0.122407 -0.28905443 0.04250015
-0.06525179 0.45558787 -0.00783371
0.01420539 0.21252573 -0.138063
-0.11839215 0.34284444 -0.15114599
-0.10791602 -0.03692871 -0.027255
-0.053653 -0.45237201 -0.13635978
0.00101016 0.38817999 0.064205
-0.09256262 -0.28557000 -0.13353883
-0.00798227 -0.03088594 0.08966318
-0.07722149 0.05457500 -0.016267
-0.106054 0.14194481 0.02230703
-0.07294576 0.43724000 0.0216026
-0.109324 0.29184533 -0.0340069
-0.0721415 -0.27902901 -0.08950297
-0.02842869 -0.45237201 -0.10998001
-0.06233793 0.45569543 -0.14637217
-0.109324 0.12340880 0.07745641
-0.122407 -0.28708869 -0.02122026
-0.122567 0.45242248 0.08615847
-0.05555673 0.38817999 -0.13918989
-0.07526066 0.38817999 -0.04493487
-0.0719365 0.33257800 -0.03520503
0.07794237 0.33257800 -0.04431135
-0.05092803 -0.12643274 0.077798
0.05259328 0.45595223 0.05867807
-0.106054 -0.01245128 -0.02863304
0.03869432 -0.39677101 -0.17167888
0.09627684 -0.38234947 0.103963
0.103266 0.05368300 -0.08872639
-0.09910663 0.38817999 0.04872745
0.06456414 -0.38694568 -0.16422801
-0.07684055 -0.39677101 0.06100679
0.00250171 -0.33462900 0.02086093
0.02918046 -0.16782799 -0.00751621
0.13270199 0.41117187 0.03522732
-0.109324 0.18799457 -0.0830032
0.06410415 -0.44582999 -0.17588988
-0.109324 0.32545663 0.02763261
0.01206338 -0.39677101 0.11524127
-0.08792872 -0.33462900 0.00690023
0.13260622 -0.34117100 0.02850698
-0.10833738 0.26290141 0.021805
-0.01481611 -0.44609059 0.113775
-0.08412584 -0.27902901 -0.0767104
-0.06975119 0.38817999 -0.04378223
0.08772038 0.45442406 -0.14568222
-0.122407 0.35671857 -0.05552562
-0.00732811 0.31731030 0.077798
-0.07500372 0.43724000 0.03377216
0.06083996 -0.08870079 0.077798
-0.04821519 -0.03917260 -0.138063
0.106537 -0.26015428 0.01474854
-0.01901244 -0.34117100 -0.05216982
-0.1055504 -0.39023000 0.06493606
0.06274216 -0.11222700 -0.12914368
-0.06007863 -0.28557000 -0.00384813
-0.10789246 -0.39677101 -0.04267013
0.11962 0.37706768 -0.10989072
0.106537 -0.13396970 -0.10143391
0.106537 0.19586435 0.04659405
-0.00949505 -0.28557000 -0.08471771
-0.06343886 0.04803400 -0.06731495
0.1041863 -0.17436901 0.03509128
-0.02257702 -0.39023000 -0.10899313
0.0389068 0.44378099 0.08431838
-0.0096511 -0.08716800 0.09350863
-0.02601314 0.38817999 -0.10758198
-0.09260767 -0.17436901 -0.01633737
-0.05929994 0.44378099 0.0257093
0.00873484 -0.34117100 -0.10884784
-0.06087153 0.44378099 -0.16920913
0.00176446 -0.07976702 -0.13695656
-0.03854625 0.15923500 0.07750521
0.0013448 0.04803400 -0.05245917
-0.145301 -0.41805892 0.06368619
-0.04803127 -0.34117100 -0.02995766
0.07317776 0.15923500 -0.13695255
-0.14289636 -0.39677101 -0.09756614
0.11318305 -0.33462900 0.01473621
-0.07264426 0.32603699 0.01317057
0.03100328 0.01388187 -0.138063
0.00304906 0.05457500 0.02779
-0.07784832 0.44378099 0.05229014
-0.10637458 -0.07722148 -0.082779
0.01273533 0.38817999 0.07096691
0.06880162 0.44378099 0.11305343
0.0253029 0.05457500 -0.06403389
0.106537 -0.07712707 -0.11701416
0.1250527 0.45201489 0.04238663
0.01717401 0.44378099 0.08280225
0.00554446 -0.22996899 0.02321974
-0.01764172 0.10968093 0.077798
-0.08751276 -0.39677101 -0.14609281
-0.08930765 -0.22996899 -0.07879937
-0.00349024 -0.28557000 -0.02173102
-0.08373077 -0.22342800 0.06004595
-0.05648892 -0.11222700 0.05514563
0.116349 0.38483760 0.00663104
-0.13333818 0.38817999 -0.07974241
-0.0622559 -0.28557000 0.00467633
0.05949898 -0.39677101 0.09984586
0.04601993 -0.11876800 0.03522853
0.10652994 -0.27902901 0.04800261
0.106537 0.04284162 -0.10101847
-0.09877864 0.04803400 -0.03866943
-0.12878965 0.43724000 -0.08588197
-0.122407 0.37179612 -0.0117258
0.0868748 0.33257800 0.06129993
0.04330322 -0.33462900 -0.13769919
0.00850233 -0.09438723 -0.138063
-0.0840047 -0.34117100 -0.03573362
0.10981922 0.38817999 -0.00877388
-0.05057118 0.38817999 -0.0948739
0.0462136 0.33257800 -0.07638229
0.09376628 0.22846320 -0.138063
-0.04921949 0.44378099 -0.1076388
-0.06714077 0.38163900 -0.10281624
-0.09995922 -0.34117100 0.05176548
0.08426928 -0.11222700 0.06452973
-0.09999362 0.12548700 -0.138063
0.01649 -0.45237201 -0.04381466
-0.079484 -0.21453156 -0.138063
-0.06807533 0.05457500 -0.04216992
-0.122407 0.36320713 -0.10629973
0.07164775 -0.39677101 -0.07071403
0.09843562 0.25703959 0.077798
-0.01726926 -0.00910790 0.08453136
0.11962 0.36176019 0.04961943
0.08033452 0.16577600 0.00771013
0.06669337 -0.34117100 0.06724777
-0.01740264 0.38163900 0.02892328
-0.01353437 0.32603699 0.05368243
-0.02186284 0.43724000 0.00173143
-0.01021202 -0.22996899 0.0167033
0.06300377 0.15923500 -0.08168242
-0.03293751 -0.39023000 0.00077312
-0.07516158 0.38817999 0.06515674
-0.07262501 -0.44427501 0.117046
0.0943545 0.45407976 -0.1233581
0.09306614 -0.08773902 0.077798
0.01654384 -0.35573624 0.103963
-0.08767321 -0.39023000 -0.07349935
0.14251401 -0.39775885 0.06551697
0.13007137 -0.37156282 -0.000405
-0.00296742 -0.27902901 0.02689499
-0.01929541 -0.17436901 0.00474963
-0.148572 0.44805419 -0.13295067
0.106537 -0.27769002 0.03052812
-0.00070557 0.32603699 -0.0213763
0.00752046 -0.11222700 -0.01443635
0.03091969 -0.17436901 0.0655809
0.07531521 0.05457500 -0.08830723
-0.09212084 0.27697799 -0.13548187
-0.00402366 0.04803400 -0.08215438
0.0413452 -0.17436901 -0.11287186
-0.08549311 0.31638599 0.077798
-0.09145073 -0.27902901 0.042816
-0.08480192 -0.16782799 -0.08631336
-0.02777926 0.09739239 -0.138063
-0.06784787 -0.45237201 0.0021513
-0.02742618 0.44378099 -0.10748446
-0.1083926 0.22111100 -0.01956398
-0.05715173 -0.33462900 0.03807701
-0.091497 0.18388347 0.077798
0.06045203 0.32603699 -0.07659317
-0.122407 -0.29790961 -0.12877291
0.09282606 0.38163900 -0.14800956
-0.12111 0.33257800 0.00672849
0.04355228 0.16577600 -0.00918718
-0.08302707 -0.16782799 -0.07624164
-0.05281022 0.16876780 0.07242117
-0.109324 -0.26141470 -0.10411863
-0.09629226 -0.27902901 -0.05774689
-0.00599016 -0.08716800 0.07148846
0.04521503 0.38901384 0.103963
-0.10874438 -0.26617576 -0.033403
-0.109324 0.04263523 0.05140051
0.06960358 0.32645731 -0.131522
0.04631785 0.31760858 -0.138063
-0.148572 -0.39870550 -0.15810903
-0.01175057 -0.28603254 -0.147875
0.0789646 -0.37872864 -0.16095801
-0.0215544 -0.11876800 -0.05349782
0.04386526 0.27697799 0.07483511
0.07729039 -0.12840871 0.077798
0.00234666 -0.07070593 0.08499432
0.09132927 -0.34117100 0.08131717
-0.11935004 -0.31968028 0.015656
0.06707767 -0.10983112 -0.13603425
-0.07033808 -0.33462900 -0.12346664
0.05263399 0.32603699 0.03951885
-0.08278167 -0.22996899 0.07401977
0.11962 0.37554484 0.00168332
0.145785 -0.44095430 0.0033373
-0.09002176 -0.34117100 -0.05867919
0.145785 -0.40017047 0.04074368
-0.08701023 -0.21616891 -0.138063
0.07997846 -0.45237201 0.01124303
-0.148572 -0.42574137 -0.02180827
-0.0887969 0.32694044 0.074528
0.106537 -0.05623686 -0.00970701
0.106537 0.28224262 -0.05501215
-0.01476164 -0.22342800 -0.12533435
-0.0919721 0.45434804 -0.00928713
-0.04498201 -0.28557000 -0.03540749
0.02300238 0.33257800 -0.13785439
0.04145377 -0.34117100 -0.0171836
0.05622256 -0.45237201 -0.10075661
-0.05023745 0.43724000 -0.00071403
0.0773447 -0.16782799 -0.10841694
-0.11522786 -0.39677101 0.0469733
-0.09155429 0.33257800 0.08309927
0.07830668 -0.33462900 0.0593042
0.0817976 0.05457500 -0.11197285
0.02919616 -0.16782799 -0.07503416
0.04719525 -0.21598442 -0.138063
0.04188936 -0.16782799 0.02245601
-0.00109586 -0.34117100 -0.1339619
0.10609361 0.43724000 -0.03186605
-0.04192837 -0.27902901 -0.00421951
-0.122407 0.35854888 -0.07296559
0.03978559 0.17654052 0.077798
-0.02181671 0.36278743 0.090881
0.0546151 -0.22996899 -0.03422332
-0.02117349 -0.23562602 -0.138063
0.09785466 -0.34117100 0.08528531
0.07516318 -0.16782799 0.04764149
-0.00850695 -0.39677101 -0.12600778
0.03193089 0.24311190 0.077798
-0.0665053 -0.11876800 0.00862759
0.10347258 0.15923500 -0.09992265
-0.148572 -0.41697151 -0.02016667
0.09188246 0.28039902 0.077798
-0.109324 0.19947888 -0.07516079
0.02076328 -0.34117100 -0.09985828
0.0861975 0.16577600 -0.08922746
-0.09908144 -0.39677101 -0.09028667
0.0537802 0.32603699 -0.09872951
-0.04635124 0.33257800 0.06108795
-0.109324 -0.01832481 -0.02679869
0.05392101 0.16577600 0.04398359
0.06041915 -0.28557000 -0.05617138
0.08759743 0.10852752 0.077798
0.11983406 -0.44582999 0.11555907
0.03091025 0.43724000 -0.09760748
0.14049017 0.44378099 -0.15309346
0.01013998 -0.17219370 -0.134793
-0.03080962 -0.16782799 0.07632006
-0.07919025 0.12299739 0.077798
-0.07686597 0.23002290 0.077798
0.09558027 -0.17436901 -0.00933223
-0.03918443 0.33257800 0.07546421
-0.08804088 -0.39023000 -0.14818855
-0.02648722 -0.33462900 -0.0685099
-0.09971868 -0.34117100 -0.08651221
-0.109324 0.15492462 -0.09154905
0.07060924 -0.16782799 -0.08252892
0.09965454 -0.34117100 0.02582097
-0.109324 0.22472934 -0.09234477
0.10539662 0.33257800 -0.06998664
-0.04307761 0.44378099 -0.08514871
0.00604698 -0.05727241 0.07442708
-0.08395424 0.45476415 -0.10230715
-0.04120915 -0.11876800 -0.12762803
-0.109324 0.12146109 -0.07288328
0.00833553 -0.34117100 -0.1484762
0.145785 -0.44521135 -0.09622461
-0.09211375 -0.22996899 -0.07064108
0.09839686 0.33257800 -0.12789167
0.0114734 -0.37684081 0.103963
0.0026465 0.45683256 0.03586553
-0.0010023 -0.39023000 -0.11405182
0.05515476 -0.45237201 -0.04188237
-0.00440452 -0.45237201 0.06200876
-0.12535784 0.44378099 0.00822849
0.07812766 -0.39023000 -0.00413371
0.02737085 0.16577600 0.02790626
-0.04477141 0.05457500 -0.05783069
-0.09624008 0.16577600 -0.05315501
0.04483276 -0.34117100 -0.07283659
0.13217079 -0.34117100 -0.04834764
-0.08605084 0.15896838 -0.138063
-0.09556143 -0.18704993 0.077798
-0.03870163 0.05457500 0.0749621
0.057478 0.13703490 -0.13615654
-0.12865021 0.45194871 -0.05314954
-0.122407 0.33520380 0.02591677
0.06252544 -0.39677101 0.05608761
-0.12562427 0.44378099 -0.03418368
0.03523672 -0.22996899 -0.09278365
-0.109324 -0.08371597 -0.02933415
-0.05083638 0.32909958 -0.131522
0.125868 -0.39677101 0.02145232
-0.04865122 0.43724000 -0.02470138
-0.00300689 0.30198654 0.077798
-0.07339409 0.43724000 -0.11002766
-0.00922865 0.45680398 0.06354814
-0.0531929 0.24780665 0.074528
-0.109324 0.07917614 -0.11080556
0.106537 0.10082298 0.05006702
0.0811591 -0.11222700 0.03467919
-0.09640888 -0.39677101 -0.12638529
0.02911004 -0.39023000 -0.14121643
0.04873001 -0.22342800 -0.08044379
-0.09707787 0.37718922 -0.15114599
-0.03386395 0.39396514 -0.16422801
-0.04775926 0.08063851 0.077798
-0.02647065 -0.11222700 -0.0303163
-0.10190485 0.15923500 0.03908917
0.05548152 -0.28557000 -0.03923089
-0.10218365 -0.22342800 0.05901453
0.13270199 -0.35414316 0.00541747
-0.03147658 0.33257800 -0.05037976
0.01384904 -0.45237201 -0.06077451
0.03091255 0.05457500 0.02615129
-0.106054 0.10818732 -0.0846688
0.00555942 -0.11222700 -0.07437031
0.01192189 0.43724000 -0.02527916
-0.01575615 0.32603699 -0.01929711
-0.08027945 -0.04336552 0.077798
0.145785 -0.42749045 -0.0505632
0.024807 0.41256948 -0.16104625
0.07415139 -0.11222700 0.01200591
-0.00327247 0.04803400 -0.03204197
-0.11676149 0.43724000 -0.07561391
-0.071717 0.26585762 0.077798
0.001877 0.04492476 -0.13796888
-0.08316712 -0.45237201 -0.10175636
0.07228735 0.33257800 0.05380235
0.106537 -0.14382550 -0.08123469
-0.109324 -0.26634302 0.04897235
-0.04589831 0.15653640 -0.138063
-0.09340197 -0.30383301 -0.15114599
-0.07230459 -0.28557000 -0.0415397
-0.02487629 -0.39677101 0.07251111
-0.08738565 0.00609777 0.077798
0.11830274 0.45252086 -0.02710988
0.01657996 -0.39677101 -0.15914036
0.09358793 -0.06712072 -0.13520033
-0.122407 0.33857923 -0.00293576
0.08185196 0.44378099 0.02438713
-0.06183603 -0.32509922 0.090881
0.03498534 -0.42170501 -0.17404
0.02047961 0.33257800 -0.01562862
-0.00991844 -0.33462900 -0.0550108
0.11677237 0.38163900 0.07105508
0.1051695 0.10693740 -0.089004
0.106537 -0.18107765 -0.13025721
0.0598321 -0.17436901 0.01583159
0.09893699 -0.16782799 -0.02957533
-0.12729431 -0.36145853 -0.16422801
0.01165685 0.32651863 0.074528
0.05062693 -0.09338978 -0.138063
-0.13101543 -0.39677101 -0.1350924
0.035538 0.04803400 -0.0343268
0.103266 0.04895498 -0.01144381
-0.09888591 0.32603699 -0.0264311
-0.03924111 0.45638258 -0.11969735
-0.0703945 -0.39677101 -0.17568789
-0.106054 0.21806670 -0.12563256
0.0518359 -0.21948737 -0.138063
-0.00371134 0.28969022 0.07666487
0.05101353 -0.34117100 -0.01091234
0.06975204 -0.20647109 0.077798
-0.06561234 0.33257800 -0.00656175
0.00694994 0.44378099 0.10493829
0.0466236 -0.22996899 -0.01012175
0.103266 -0.22574014 -0.03741263
-0.106054 -0.11713792 0.06534056
0.04917291 -0.07648084 -0.138063
0.103266 -0.22865171 -0.0601044
-0.06723501 -0.45237201 -0.08306243
-0.101597 -0.33462900 0.04210768
-0.06227497 -0.06944144 0.077798
0.13270199 0.42955469 0.06132813
0.02744725 0.33257800 -0.10818498
0.06778704 0.16577600 -0.10956486
-0.100327 -0.45237201 -0.12575994
-0.00874804 -0.28557000 -0.09846294
0.145785 -0.42060725 0.0323502
-0.09093239 0.20089226 0.077798
-0.04684671 -0.17436901 0.02102784
-0.11848153 0.44378099 -0.13203986
0.06892509 0.44950622 0.117046
0.02845884 0.38817999 0.01864659
0.103266 0.27084527 -0.07032705
-0.12355732 0.43257217 0.103963
0.09492664 0.19728854 0.077798
-0.02107319 0.44378099 -0.01067038
-0.11713793 -0.45237201 -0.14824109
0.03490831 0.16577600 0.07182073
-0.119136 0.38687090 -0.09637281
-0.02835992 -0.34117100 -0.0980992
-0.05868166 0.38163900 -0.05529645
-0.14003478 0.45101911 0.02615974
0.00587952 0.05607399 -0.138063
-0.10258991 0.33257800 -0.14487298
-0.09414146 0.15923500 -0.13351156
-0.10708301 -0.22996899 -0.09355088
-0.05437508 0.45598936 -0.09173031
-0.109324 -0.17871341 0.06015451
0.08197215 -0.12728780 -0.138063
-0.03879271 0.43724000 0.04757406
-0.01009973 -0.05574393 0.08761
-0.02036094 0.33257800 0.05554106
-0.106054 -0.11283672 -0.11183493
-0.00437105 -0.17436901 -0.13469941
-0.0821908 -0.11876800 -0.11738439
-0.122407 -0.29682164 -0.00597057
-0.00824687 0.16577600 -0.06609899
0.12906555 0.43724000 0.10390578
-0.06310299 0.20690096 -0.138063
0.03574092 -0.34117100 -0.02146729
-0.01431678 -0.23415755 -0.138063
0.08513083 0.44378099 0.0953498
0.04337444 0.45622869 -0.09405203
-0.04824606 -0.24718723 0.077798
0.10093138 0.38163900 -0.09250634
0.01835781 -0.06671014 0.08126283
-0.109324 0.32492547 -0.08517831
-0.122407 -0.33440441 -0.03794471
-0.0513434 0.44378099 -0.1513791
-0.09226824 -0.33462900 -0.00852104
-0.07347377 0.05457500 -0.02441284
-0.0382148 0.43724000 -0.01130555
0.06905384 -0.11222700 -0.13126563
-0.0568159 0.38163900 -0.06723561
0.02377352 -0.34117100 -0.15521539
0.02934334 0.15923500 -0.02571381
-0.0207764 0.45671701 -0.13745306
0.10798963 -0.33462900 0.07265007
-0.06874424 -0.39677101 0.0315413
-0.05480657 0.44378099 0.0122386
-0.09334903 0.16577600 -0.01263058
0.10317179 0.38817999 -0.12938871
-0.05020819 -0.28557000 0.03752058
-0.0649619 -0.34117100 -0.08266454
0.14136579 -0.45237201 -0.09036316
0.145785 -0.40454035 -0.11068196
-0.109324 -0.17669075 -0.00667079
0.06931766 0.38817999 -0.10366923
0.05683369 -0.34117100 -0.15501047
0.106537 -0.15104340 -0.04022901
0.06302686 0.38817999 -0.01093498
0.02112624 0.38817999 0.02652804
0.13270199 -0.38173645 -0.0879241
-0.074166 -0.32021237 0.090881
0.10810737 -0.43310260 -0.177311
-0.0215849 0.39667100 -0.16422801
0.01279056 -0.39601049 0.100693
-0.04276757 0.32603699 -0.09020022
0.06497329 0.38693620 0.08761
-0.135489 0.39760670 0.03540838
-0.0019538 0.43724000 0.08910366
-0.05829091 -0.17436901 -0.07783379
0.03776475 0.33257800 -0.06426952
0.09312226 -0.10231078 -0.13545395
0.030117 0.45652348 -0.09069331
-0.05432848 -0.21487839 -0.138063
0.01936642 -0.39023000 -0.06172856
-0.148572 -0.43072321 -0.09545593
0.01985308 0.03028363 -0.138063
0.04121329 0.38163900 0.06881447
0.10594125 -0.17436901 -0.13746961
0.01898718 -0.19031946 -0.138063
0.09626538 -0.27902901 0.01433554
0.0802206 -0.28557000 -0.00076808
-0.03709289 -0.16782799 -0.11902169
-0.10850384 -0.17436901 -0.02079783
-0.135489 -0.38571789 0.07072149
0.07541714 -0.34117100 -0.02928796
-0.11552736 0.35420018 0.090881
-0.05770064 -0.45237201 -0.01563049
-0.0598301 -0.39677101 -0.11847563
-0.03388044 -0.34874415 0.103963
0.07731504 0.38786029 0.08761
-0.09431188 0.05457500 0.02752602
-0.01202244 -0.07077056 0.09370455
-0.12518968 0.40888697 -0.16422801
0.12943099 -0.38663506 -0.00161367
-0.07285139 0.43724000 -0.06154134
0.11690337 -0.34117100 -0.16149865
-0.10344529 0.38163900 -0.06369053
0.01912329 0.05457500 -0.08464563
0.07926452 0.15923500 0.07288414
0.06982075 0.43724000 0.03421838
0.10412829 -0.34995553 0.103963
-0.106054 -0.02966908 -0.02893248
0.03236907 -0.39023000 0.04064332
-0.09004207 -0.27902901 -0.11150461
-0.109324 0.20222505 0.02183221
0.05571665 -0.28557000 -0.05242251
-0.10079522 0.43724000 -0.11969772
0.04499609 0.30502368 0.077798
-0.0231411 -0.36223827 -0.16422801
6.75e-06 -0.27902901 -0.09302869
-0.148572 -0.42977248 0.09007581
0.106537 0.18213449 -0.07049167
0.03897847 0.07473852 -0.138063
0.04008709 0.44378099 -0.10606999
0.02732745 -0.33462900 0.07501785
0.07213131 0.44378099 0.09718564
-0.10622419 0.22111100 -0.05769677
-0.109324 -0.01359523 -0.08173196
-0.0003633 0.35916523 -0.15114599
-0.12020925 -0.34117100 -0.10565944
0.02214443 0.26682515 -0.138063
-0.08838338 0.38163900 -0.14868423
0.00950296 -0.04618252 -0.138063
0.08855508 -0.37744395 -0.16422801
-0.08580492 -0.17436901 0.05103708
-0.01593325 -0.11222700 -0.05166675
0.11962 0.36380022 -0.04561964
0.04774399 -0.00942267 0.077798
0.01816823 -0.11862379 -0.134793
-0.066477 -0.14030800 0.077798
-0.08596757 0.05781025 0.077798
0.03828897 -0.28557000 -0.03090963
0.00692292 0.38163900 0.01067276
-0.06492822 -0.32529127 -0.15114599
-0.119136 -0.33534400 0.08589262
-0.07565577 -0.39023000 0.04718516
0.1269405 -0.45237201 -0.04924336
0.13185555 0.44378099 -0.03019917
-0.05810803 0.33257800 -0.04113804
0.03753236 -0.27902901 -0.06994347
-0.08804721 -0.22996899 0.04484541
-0.0875971 0.04803400 -0.08623985
0.106537 0.23161487 0.02974073
0.01051309 0.45677331 -0.03038048
-0.07321932 -0.11222700 -0.04678259
0.01346179 0.38163900 0.04791915
-0.10432432 -0.15484025 -0.138063
-0.05539374 -0.11222700 0.00029705
-0.05827032 -0.39677101 0.00979631
0.11962 0.35368219 0.06826432
-0.0272813 0.33257800 0.04862382
0.05527012 0.05457500 0.00439007
0.04651616 -0.22342800 -0.01630136
0.10082288 -0.06639918 -0.138063
-0.07385096 -0.19932412 -0.138063
-0.00691011 -0.09722453 -0.138063
-0.13019791 -0.45237201 -0.11901783
0.13415001 0.45127205 0.04245416
-0.0361068 0.16577600 -0.01330719
0.09769994 -0.27430752 0.077798
0.00795688 0.12724477 -0.138063
-0.07467146 0.04803400 0.06980653
-0.13578111 0.44378099 0.01407401
-0.02838545 0.35581299 0.090881
-0.109324 -0.27734297 0.02756316
-0.03604864 -0.33462900 -0.11951435
-0.109324 -0.04957745 0.01587694
0.06828441 -0.45237201 -0.03931144
-0.10557498 -0.22996899 -0.04120781
-0.020704 0.43724000 -0.07414535
-0.10930058 -0.39677101 0.07052838
0.08966998 -0.22342800 0.06020325
0.106537 0.13790601 -0.04008473
-0.109324 0.30106083 0.04340056
-0.02763292 -0.28557000 -0.02223034
0.08425876 -0.44191521 -0.177311
-0.10763901 0.14824634 -0.089004
0.07666545 0.44378099 0.00599635
0.02839175 0.05457500 0.01817052
0.145785 -0.44443887 -0.15385671
0.106537 0.30040573 0.03247796
-0.00806077 0.38817999 -0.06341287
-0.01673222 -0.27902901 -0.02752874
-0.14648692 0.45049226 -0.1161494
0.08678831 0.44378099 0.04800736
-0.135489 0.41496236 -0.04706684
-0.1079111 0.15923500 -0.03531347
-0.04648057 0.43724000 -0.02845216
0.145785 -0.41258535 -0.01822692
0.05740089 -0.17436901 0.06415334
0.11962 -0.32764934 0.08523529
0.07232957 -0.22342800 -0.04301107
0.11962 -0.31633262 -0.11590478
0.106537 -0.05463898 -0.00953369
0.072638 0.15923500 -0.13033698
-0.109324 0.06921819 0.04160908
-0.109324 0.01064410 -0.03947127
0.12372907 0.38817999 -0.15609756
-0.109324 0.06364134 0.00958752
0.07065885 -0.45237201 -0.05603543
0.08607837 0.05457500 0.05131739
0.09005104 0.38163900 -0.13635206
-0.11512893 0.38817999 0.00379936
0.09202692 0.09959623 0.077798
-0.05117122 -0.22342800 0.03964486
-0.0767045 -0.11876800 0.00530558
0.08824449 -0.45030909 -0.17404
-0.106054 -0.27940950 -0.0090633
-0.11793845 -0.35427248 -0.16422801
-0.12112421 -0.45237201 0.07163645
-0.11102189 0.38163900 -0.12484234
-0.05230545 -0.40748561 -0.177311
-0.148572 -0.43595395 7.244e-05
-0.122407 -0.30602842 0.02400026
0.106537 0.29039903 -0.07898846
-0.05726083 -0.22342800 -0.04187281
-0.10167088 0.33257800 0.01260832
-0.00825532 -0.45237201 0.05373316
0.03810554 -0.33462900 -0.03759259
0.08707343 0.38817999 -0.14457353
0.145785 -0.43404922 0.07629296
-0.0290813 -0.39677101 0.0386698
-0.02570332 -0.16782799 0.05293006
0.12676802 -0.34117100 -0.11124692
-0.01785325 -0.17796052 -0.138063
-0.09965953 0.43724000 0.03130918
0.13270199 0.40095308 -0.09675717
-0.00442114 -0.45237201 0.06952949
0.0964759 -0.08702219 0.077798
0.05509663 0.38163900 0.05391701
0.06120219 0.14311294 -0.138063
-0.00152714 -0.00756700 -0.13532015
-0.1314463 0.38817999 -0.05338197
0.06030916 -0.17436901 0.0526597
0.06238822 -0.45237201 -0.16115788
0.06835915 -0.45237201 0.03784853
-0.04668112 0.04803400 -0.01207476
-0.02062 0.00523894 0.09040973
0.07057648 0.10158460 0.077798
-0.14321863 -0.45237201 0.02398829
-0.06650277 -0.17436901 -0.01168326
0.11962 -0.29563516 0.04662007
0.00727774 0.44378099 0.03315598
0.03428094 0.44378099 -0.07333315
-0.1307644 -0.34117100 0.07744178
0.04556474 -0.16782799 0.01395307
-0.03804646 0.07804715 -0.138063
-0.13956335 -0.39677101 -0.15114419
-0.109324 -0.26228505 0.06990955
0.07034057 0.04803400 0.04990877
0.10369277 -0.11222700 -0.06291569
-0.05337137 -0.34117100 -0.00915517
-0.00873074 -0.10262720 0.094151
0.04923499 -0.02244051 0.077798
-0.00166634 0.32603699 -0.11949143
-0.01243277 -0.28557000 0.08342456
0.01478527 -0.16782799 0.03244335
-0.10641432 0.33257800 -0.14680694
-0.109324 0.11120777 -0.0894457
-0.08065236 -0.16782799 -0.01786705
0.10054021 -0.08168141 0.077798
0.106537 0.23080022 0.01019082
0.0227877 0.16577600 -0.04472131
-0.03631782 0.38163900 0.07279572
-0.08149685 0.04803400 -0.02414849
-0.01621607 0.42197927 0.103963
0.08896222 0.07861216 0.077798
-0.02883371 -0.39023000 0.01578042
0.05414622 -0.11222700 0.00407419
-0.12691587 0.39374899 0.103963
0.03191097 -0.27902901 -0.12418361
0.07695212 0.05719505 0.077798
-0.106054 0.05054333 -0.04271346
-0.0701939 -0.01124855 0.077798
-0.122407 -0.30739620 -0.04087567
0.02904023 0.27468020 0.077798
0.0997422 -0.34117100 -0.0966825
-0.06495743 -0.33462900 -0.02095219
0.05881446 -0.27902901 -0.04606465
0.13270199 -0.36764177 0.09037297
-0.07200425 -0.33462900 0.05824994
0.05425806 0.15923500 -0.00707094
0.08833178 -0.34117100 -0.08976812
0.13419727 0.45126820 0.02337047
0.13676452 0.45105857 -0.09801421
0.04156311 -0.39677101 -0.11628659
0.103266 0.21910491 -0.03646065
-0.00984152 0.05457500 0.06066838
0.04979218 -0.28557000 -0.14941761
-0.10830423 0.19122454 -0.033403
0.13270199 -0.37786428 0.01488861
-0.122407 0.34990247 -0.15059086
0.02766417 0.16577600 -0.03842222
0.145785 -0.40311215 -0.0847381
-0.08596318 -0.16782799 0.06173813
-0.09337979 -0.14690306 0.077798
0.01003979 -0.39023000 0.04876655
0.11962 0.34362285 -0.02159915
-0.06982362 0.02815556 0.077798
-0.03638131 0.33257800 -0.08180876
0.02719285 -0.39677101 -0.14558017
-0.09463844 0.33257800 0.06227306
-0.10044151 0.13272415 -0.138063
-0.00952454 -0.17436901 0.0458326
0.09317034 -0.34117100 -0.03818543
0.11962 0.33594351 -0.10680881
-0.01365131 0.19458716 -0.138063
-0.10578153 -0.16029397 -0.138063
-0.135489 -0.34824640 -0.10589876
-0.05203925 -0.16625417 0.077798
0.04810881 0.38817999 -0.11979147
-0.10846755 0.32603699 -0.07614525
-0.01205523 0.43424997 0.103963
0.09321166 -0.28557000 -0.14919652
-0.06537713 0.28866277 -0.138063
-0.05652142 -0.11222700 0.02620581
-0.00760192 -0.16782799 -0.00599991
0.05557722 0.38163900 0.08966546
0.12943099 0.43989665 -0.04814459
0.05655918 -0.22342800 0.03977404
0.1046932 -0.12875864 0.077798
0.11723645 -0.34117100 -0.08099534
0.08387978 0.05457500 -0.12179104
-0.01148103 -0.22996899 -0.02487123
0.05762576 0.16577600 -0.10575631
-0.109324 0.06792174 -0.03833917
0.04366603 -0.17436901 -0.08957639
-0.06734406 0.15923500 -0.110933
-0.10040913 0.05457500 -0.04317992
0.103266 0.16564227 -0.04811375
0.06515658 0.09933953 0.077798
0.11489723 0.43724000 -0.13002938
-0.109324 0.09333667 -0.07667758
-0.07508248 -0.39677101 0.10242926
-0.01083084 -0.45237201 -0.09863227
-0.09512971 -0.45237201 0.07202918
-0.06674834 0.04803400 0.02555632
-0.135489 -0.35113143 0.01768118
0.13148838 0.45148939 0.06605303
0.04639844 -0.11222700 -0.05367774
0.07623687 0.01248001 0.077798
-0.106054 -0.19222658 -0.08776858
0.08986457 0.15923500 -0.1118631
0.00356677 0.43724000 -0.00954447
-0.08489992 -0.34117100 -0.02541324
-0.109324 -0.15297149 -0.12315975
0.08350752 0.15923500 -0.07534931
0.04616061 -0.22342800 0.04078822
0.13270199 -0.37983605 0.0615265
-0.0747669 0.38817999 -0.16372874
-0.0625765 0.38817999 -0.13229078
-0.02112092 0.32603699 -0.09664198
0.10256802 0.05457500 -0.00364019
0.11962 0.34934694 0.08977628
0.01814176 0.38163900 -0.13320903
0.00898358 -0.45237201 -0.0644134
-0.109324 -0.24183970 -0.01062387
-0.135489 0.42070810 -0.12864147
-0.00492074 -0.11222700 -0.09701686
-0.0738239 -0.33462900 -0.08500232
0.106537 0.22348103 -0.08036559
0.06448727 -0.45237201 -0.04077809
-0.01635925 0.38163900 -0.03634679
-0.02360398 0.05457500 -0.10498847
-0.01081015 0.45679207 0.02357211
-0.01148956 0.17820308 -0.138063
-0.11969367 -0.33462900 -0.01254671
-0.06798753 -0.39677101 -0.02750523
-0.11243397 -0.39677101 0.09477832
-0.03785951 0.38163900 -0.09636643
0.03297101 -0.11222700 0.03527759
-0.11965032 -0.28557000 0.02732472
0.00859488 -0.09253399 0.07064497
-0.148572 0.44629407 0.02797985
0.08291321 0.44378099 -0.0360348
-0.05689091 0.15923500 -0.06259734
-0.04897106 0.44378099 -0.15578744
0.08043054 -0.34527495 -0.16095801
-0.01522655 0.45675881 -0.03062481
0.05954848 0.36146546 -0.15114599
-0.145301 -0.45169215 -0.15321252
0.06420087 0.04803400 0.03231137
0.07343062 0.38163900 0.02762833
0.03842404 0.32603699 -0.12462518
-0.06445035 0.33257800 -0.08450636
0.11962 -0.29719916 0.02487432
-0.10555959 0.44378099 0.05132682
-0.05684449 -0.17968219 -0.138063
0.04475824 -0.39677101 -0.12438871
0.0329253 -0.11222700 -0.08137693
-0.02312182 -0.34117100 -0.11945775
0.04855711 0.16577600 -0.13786853
-0.109324 0.29693592 0.04966878
-0.109324 0.31967916 -0.03733154
-0.08196371 0.05457500 -0.09838908
0.12803729 -0.39677101 -0.09696731
0.0567332 -0.34117100 0.07407348
0.00652803 0.38163900 0.0026121
-0.04310236 -0.33462900 -0.03541034
0.11958393 0.38817999 -0.11894445
0.03707084 -0.39677101 -0.06381462
0.106537 -0.18722912 -0.07497757
-0.10749112 -0.39677101 -0.17204263
-0.00367277 -0.32162748 0.090881
0.106537 -0.00852538 0.0377105
-0.06138229 -0.11876800 -0.07201241
0.04138786 -0.22996899 -0.00832038
0.04712617 0.43724000 -0.03756425
0.09170732 0.04803400 -0.13724894
0.01699036 0.44378099 -0.09336481
0.106537 -0.07248194 -0.01427076
-0.145301 -0.45157657 -0.00840539
0.02775841 -0.28087825 -0.134793
-0.01901936 -0.40084435 0.117046
0.00575822 -0.08572358 -0.138063
0.01953932 -0.28557000 -0.01680153
-0.03691948 -0.34117100 -0.04000042
-0.00111329 -0.10152381 0.06851438
0.106537 0.25780464 -0.0677208
0.00032797 -0.06405790 0.09010238
-0.10835789 -0.00102600 -0.11988155
-0.09248867 0.32603699 0.00609293
-0.109324 -0.10550542 -0.01152615
0.02525559 -0.11876800 0.00744036
-0.06991414 -0.28557000 0.0238737
-0.0778252 0.06749577 -0.138063
0.06211136 0.15923500 -0.12805792
-0.109324 0.07247814 0.05871492
0.02867742 0.27043599 -0.13646299
-0.10984574 -0.37994481 0.103963
-0.109324 0.04708403 -0.13243276
-0.09922544 0.43724000 0.04358487
-0.03819616 -0.11222700 -0.02148027
0.06741203 0.04803400 -0.08093339
0.106537 0.17375547 0.06870447
-0.04656517 -0.39677101 0.10060176
-0.119589 0.33257800 -0.0689142
-0.00536913 0.16861511 -0.138063
-0.06720192 0.05527430 -0.138063
0.01979336 -0.39023000 -0.0754205
0.05285507 -0.22342800 -0.12768457
0.13046633 -0.45237201 -0.10912529
0.12893421 0.43724000 -0.01544062
-0.01494227 0.43724000 -0.07740837
-0.04924542 0.44378099 -0.10572167
0.05053219 -0.16782799 -0.12714789
0.09991239 -0.22996899 -0.07444778
-0.0039179 -0.10162614 0.07305721
0.106537 -0.03438398 -0.12742923
0.07511564 -0.33462900 0.05164037
-0.03165952 0.15923500 -0.0253568
-0.00322996 0.30917275 -0.138063
-0.04397403 0.38163900 -0.04448174
-0.06987288 -0.27902901 -0.06701533
0.11962 0.35116846 -0.00916268
0.10021751 -0.22996899 0.05655009
-0.135489 0.43084889 -0.09189279
-0.109324 0.18480151 -0.08184188
-0.00814823 0.38817999 0.06379784
-0.148572 -0.42129723 -0.13608114
0.11357724 0.41512574 -0.16422801
-0.03924579 -0.11222700 -0.07877922
-0.079889 0.40283584 0.10205351
-0.0288368 -0.27949050 0.077798
-0.10225833 0.16577600 -0.02311724
0.02130445 -0.33462900 -0.12021102
-0.01781019 -0.45237201 0.09707328
-0.0991991 -0.22996899 0.04538693
-0.06903015 -0.28557000 -0.04834967
-0.01112009 -0.34117100 -0.10320772
-0.109324 0.31475856 -0.07337922
-0.02368872 -0.17436901 -0.02168846
-0.02566019 -0.34117100 -0.06887881
0.09514713 -0.07838851 -0.13515128
-0.109324 -0.03653039 0.05440598
-0.08096767 0.33257800 -0.08741735
0.00630161 0.45680503 -0.13029683
0.07188836 -0.05321721 -0.138063
0.1175888 -0.34117100 -0.10187038
-0.04272917 0.33257800 0.03155067
0.05104696 -0.39677101 0.05012359
-0.03867861 -0.39023000 0.05417351
-0.0201521 -0.22675618 -0.134793
0.04752824 0.12453302 0.077798
0.106537 0.23990334 0.01316776
0.0694852 -0.08694767 0.077798
0.06317197 -0.39023000 -0.12393986
-0.05630857 -0.22342800 -0.01694286
-0.03151311 -0.22996899 -0.12305975
-0.04402015 0.31582497 0.077798
0.03523175 0.21259465 0.077798
0.0794105 -0.11222700 -0.06439086
-0.11182659 -0.34117100 0.10052677
0.0264764 -0.39677101 0.10851294
0.1033058 0.45351955 -0.15653539
-0.01758601 0.36139510 -0.15114599
0.12858504 0.45172646 0.01984888
-0.04587538 -0.33462900 -0.12761478
-0.135489 0.41144486 0.04504313
-0.106054 -0.28553639 -0.11996871
0.02635108 0.45660722 0.09176076
-0.05367385 -0.39023000 -0.05741639
0.11811813 0.44378099 -0.14167083
-0.109324 -0.13154863 -0.12978618
0.07601816 0.44378099 -0.026842
0.03644991 -0.00782061 -0.138063
0.02524966 0.20335096 0.077798
-0.0171165 -0.45237201 -0.02980916
0.08699359 0.33257800 -0.09414831
0.04885761 0.38163900 -0.05778255
-0.106054 0.21604749 -0.01302106
0.02655785 0.21058613 -0.138063
0.02960496 0.26020354 -0.138063
-0.00622809 -0.17436901 0.00491421
0.0502832 -0.27902901 -0.01710459
0.01368806 -0.27641717 0.077798
-0.04354521 -0.11876800 -0.09285618
0.1071682 0.44378099 0.0610991
0.02022781 -0.39677101 -0.00034353
-0.109324 -0.11902857 0.01907263
-0.0465927 0.27408192 0.074528
-0.09748212 -0.28557000 -0.01962458
-0.07886238 0.16577600 -0.12230728
-0.07694712 -0.45237201 0.07535028
-0.05448051 0.04803400 0.06901492
0.09925185 -0.00791800 0.07763769
0.12740344 -0.45237201 0.11050152
-0.04537616 0.15423838 0.077798
-0.05550751 -0.09688573 0.077798
-0.01526176 -0.11222700 0.07822912
-0.00171025 0.11803688 -0.134793
-0.00315292 -0.22996899 -0.11498686
-0.109324 -0.10808627 0.05794662
-0.08846813 0.04803400 -0.00902518
0.05702009 -0.45237201 0.04270786
-0.03105578 -0.12142813 0.077798
-0.03516656 0.08939349 -0.138063
-0.109324 0.18875499 -0.07500837
-0.12528182 0.43724000 -0.16037528
0.00511268 -0.12849589 0.077798
-0.13634053 0.44378099 0.03665051
0.04561477 -0.28557000 -0.01358227
-0.09246791 0.32603699 -0.06815717
-0.05544864 -0.22342800 -0.13782839
0.106537 -0.09090735 -0.00022588
-0.148572 0.44980442 -0.13524061
-0.12194951 -0.34117100 0.05909564
-0.07649033 -0.45237201 0.01316225
0.0078276 -0.16782799 -0.05136743
-0.109324 0.22425936 -0.07915903
0.106537 0.11164653 -0.10857188
-0.0333431 -0.28557000 -0.11366793
0.10753264 -0.28557000 -0.05774346
-0.09835362 -0.17436901 -0.11148129
0.106537 0.29580518 -0.00660512
0.06468083 0.32603699 -0.1219117
-0.060265 -0.14906893 -0.13543746
0.106537 -0.25035032 0.04220143
