# .PCD v0.7 - Point Cloud Data file format
VERSION 0.7
FIELDS x y z
SIZE 4 4 4
TYPE F F F
COUNT 1 1 1
WIDTH 1415
HEIGHT 1
VIEWPOINT 0 0 0 1 0 0 0
POINTS 1415
DATA ascii
-0.107333 0.12079766 -0.27268333
-0.16915791 -0.03261111 0.36645161
-0.16465666 -0.00923778 0.26257199
-0.23086031 0.02195700 0.30694802
0.0555569 0.07987700 0.31673076
-0.17624152 0.07145044 0.32734745
-0.107333 0.10264316 0.07156399
-0.09406504 0.07987700 -0.04484739
0.01172452 0.07987700 0.2549833
-0.13250183 0.01820000 -0.32227998
-0.25652012 0.07714817 -0.30163039
0.0879297 0.07987700 0.23165215
0.124659 0.10422601 0.08945317
0.306218 0.00120231 -0.34712021
0.0157718 -0.02963400 0.26368742
0.03627639 0.07987700 0.19407233
0.03306902 0.07987700 0.23581996
0.25939492 0.01619227 0.19984522
-0.29427299 -0.02626482 0.2428512
0.22954285 0.00947128 -0.26876301
0.29920128 0.08055035 0.27550457
-0.22287726 0.07736279 0.31499421
-0.08700129 0.07987700 -0.07943792
-0.16904099 0.00423298 0.3537041
-0.29427299 0.04687706 0.23115673
-0.16904099 -0.04133940 0.26470065
0.09303935 0.12339600 0.01251708
0.000412 0.02195700 0.28085804
-0.04439013 0.01820000 -0.27492253
0.02358799 0.07987700 -0.33306466
-0.107333 0.08397561 0.00392158
0.28926184 0.04328205 0.35503098
0.24211139 0.00315524 0.19812832
-0.07118333 0.07987700 0.29223357
-0.01276681 0.12339600 0.26925221
0.19296721 -0.02645333 0.36767705
0.124659 0.11524873 -0.01132082
0.306566 -0.04698078 0.27802723
0.17660201 0.03897342 -0.31851873
-0.16904099 0.01967020 -0.36624525
-0.07296727 -0.01291101 -0.26876301
-0.07895905 0.07987700 0.34741974
-0.04702189 0.07987700 -0.20445966
0.02817386 0.08456859 0.38343701
0.275218 0.07514220 -0.31139452
-0.22507787 -0.08631761 0.28735502
0.00087332 0.12339600 0.20306478
0.04308525 0.07987700 -0.00387937
0.0586284 0.11629893 -0.37954199
-0.06625163 0.12339600 -0.21802815
0.27624087 0.04645948 0.21494143
-0.29396001 -0.03678622 -0.27047229
0.02381545 0.07987700 0.31943621
0.03819575 0.07987700 0.12066775
0.306218 -0.08082805 -0.31557715
-0.2002232 -0.08081665 0.31725964
0.29831021 -0.05216430 -0.21822475
0.21979122 0.05469594 0.3462734
-0.00944682 0.12339600 0.31290751
-0.00266752 0.02195700 0.27125987
-0.05029135 0.10529097 0.38343701
0.12274662 0.07987700 0.09267009
-0.27309117 0.07665032 -0.284738
0.23466371 0.04761964 -0.36123187
0.1182292 0.12339600 -0.20290448
0.05480502 0.12339600 -0.1806196
-0.27498298 0.07196598 0.24909497
0.124659 0.08616258 -0.22266124
-0.16904099 -0.00929725 0.24387727
-0.16904099 -0.09337298 -0.27455559
0.10725691 0.12339600 -0.25946507
0.18222122 0.04725516 0.35198252
0.02338023 0.12339600 0.35929684
-0.030346 0.06019388 -0.30031334
-0.20873763 0.03194524 -0.21800219
0.00630626 -0.02963400 0.30171957
-0.04689126 0.07987700 -0.19466262
0.124659 0.11141171 -0.13447025
0.28079211 -0.04193082 0.36157128
0.20749135 0.05783082 -0.24203064
0.1061046 0.07987700 0.17920957
0.27251899 -0.08479083 0.31602262
-0.16904099 -0.04235315 -0.24240005
-0.107333 0.10090372 -0.11876767
0.20278406 -0.01949378 -0.38315314
0.306218 -0.00042836 -0.35632137
-0.01931589 -0.02963400 0.29618212
-0.17196402 -0.02637244 -0.20931455
-0.02042243 0.12339600 0.10624951
0.23087276 0.06256676 -0.24820245
0.124659 0.08526571 0.0234141
0.03078164 0.00276406 -0.26876301
0.22904215 0.03937349 -0.36755956
0.28536687 -0.03459098 -0.38098913
-0.02586938 0.07987700 -0.04261009
0.05157347 0.07987700 0.3645405
0.01423679 0.02195700 0.30513522
-0.12429224 -0.01323280 0.26257199
-0.00681019 0.00129646 0.26257199
0.07093913 -0.03225542 -0.32355201
0.21318063 -0.00540749 0.37044866
0.06866292 0.07987700 -0.26735478
-0.107333 0.12098729 0.25258537
0.10234081 0.12339600 -0.07525754
0.01760399 0.12339600 -0.22727706
0.09527898 0.07987700 -0.25078185
-0.25273621 -0.04628869 -0.21565961
-0.030346 0.03878421 -0.30116101
-0.107333 0.09055292 -0.0649857
-0.24045182 0.08087361 0.2823852
0.06833792 0.02195700 0.29860212
-0.08699072 0.12339600 -0.26716497
-0.107333 0.09153724 -0.18551695
0.25668031 0.01820000 -0.29713951
0.18966375 0.02560200 0.36412132
-0.17971051 -0.05719188 -0.22102788
-0.01281603 0.12339600 -0.25955495
0.29405108 0.06871537 0.32882802
-0.17741663 -0.02963400 0.27319044
-0.06562706 0.07987700 0.19354542
-0.0789206 0.07987700 0.22503135
0.23957225 -0.05617475 0.21459129
-0.28364131 0.08124677 0.28721339
-0.21593644 -0.06316862 -0.3649771
0.02085721 0.07987700 -0.26012303
0.02705234 0.12339600 -0.07656976
0.30370809 0.00287175 0.31016001
-0.22730984 0.03196111 -0.21800854
-0.20308248 -0.06918524 -0.23046974
0.11769325 0.12339600 0.16928999
-0.15922335 0.02195700 0.27968103
0.09540135 0.12339600 0.36520417
-0.08417663 -0.03704500 -0.28681306
-0.23426186 -0.02614616 0.31016001
-0.107333 0.08073041 0.2094952
-0.16904099 0.02660419 -0.28309602
-0.09491436 0.08878840 0.38343701
0.00824575 0.07987700 -0.09002778
-0.08095812 0.00326142 -0.26876301
-0.05267773 0.07987700 -0.19717127
-0.24508466 0.06928255 -0.33219534
-0.26587184 0.07977695 0.30297244
0.09938511 0.01820000 -0.30837899
-0.22544978 0.01864185 -0.21268469
-0.09770298 0.12339600 0.36282941
0.124659 0.08018157 -0.26537357
-0.08048928 0.07987700 -0.26570878
0.2864304 -0.06269785 0.34793785
0.08736661 -0.01841712 -0.26876301
0.17660201 0.06072940 -0.2783808
-0.28049095 -0.08479814 -0.24905557
-0.16904099 -0.02563701 0.32455102
-0.29396001 0.00532124 -0.30390232
0.05143441 -0.03704500 -0.28895041
-0.18513227 0.05852051 -0.34953202
0.24516591 -0.03850230 -0.21256594
-0.18387127 -0.01660698 0.20557441
-0.02987158 0.01820000 -0.29337778
-0.00616559 0.07987700 -0.14042123
-0.107333 0.10731508 0.03399595
-0.08334159 0.07987700 0.11921716
0.0135572 0.05594724 -0.32355201
-0.19066348 0.05576331 0.34871252
0.20114255 -0.02567220 0.31016001
-0.29396001 0.02050141 -0.23596199
-0.03922512 0.12339600 0.38117568
-0.16904099 0.06064643 0.31573473
-0.0787863 0.12339600 0.01167473
-0.0232227 0.12339600 -0.25341984
-0.07024955 0.08608904 -0.37954199
0.23997896 -0.07298336 0.33652199
0.22350657 -0.04137590 -0.21375619
-0.24961924 0.00116874 -0.20862149
-0.16904099 -0.03455946 0.22811873
-0.26677976 0.07953281 0.30427971
0.11567529 -0.00332155 0.26257199
0.17824601 -0.02051015 0.33234485
0.11870339 0.12339600 -0.24483501
-0.08058849 0.02195700 0.29630956
0.03793273 0.07987700 0.20010282
-0.27604903 0.07415268 -0.32001175
-0.01671703 0.01820000 -0.28062441
-0.29396001 -0.05634555 -0.32622051
-0.20428707 -0.04379466 0.21532235
0.306218 0.03694774 -0.3269653
0.15307343 -0.01256170 0.31016001
-0.12271045 -0.03704500 -0.31331869
-0.29396001 -0.01425906 -0.3620563
0.07389941 0.12339600 -0.1771977
0.24487319 0.01451922 -0.26876301
0.01016223 0.07987700 -0.34977163
-0.107333 0.10867991 -0.11441939
-0.11056041 -0.02963400 0.28984328
0.23970159 0.01007168 -0.32355201
0.01316393 0.12339600 -0.28350553
-0.08192793 0.07987700 0.20670692
0.05197782 0.07987700 -0.15791911
0.25085174 -0.07950837 -0.35062563
-0.28176061 0.07607622 -0.28076016
0.30257103 0.05263661 -0.23526161
-0.22866646 0.06072934 -0.24404143
-0.01370137 0.12339600 0.0868781
-0.02577366 0.12339600 0.37251373
-0.26173492 0.00137640 0.31016001
0.03246157 0.12339600 0.05535193
-0.29396001 -0.01586836 -0.34689529
0.09484412 0.07987700 0.22288364
0.10237744 0.12339600 0.22742
-0.27293962 0.07589379 -0.31217
-0.27666273 -0.06208277 0.22946167
-0.04564095 0.07987700 0.33891488
-0.07290911 0.12339600 -0.035179
-0.26615413 -0.01877378 0.31016001
-0.16904099 0.02543530 0.33890973
-0.22106987 -0.08440105 0.27198405
0.03145661 0.07987700 -0.08229156
0.02712268 0.07987700 0.27039048
0.04943216 0.12339600 0.03270285
0.0559351 0.12339600 0.05124955
-0.29396001 0.00450598 -0.34310899
0.306566 -0.01248755 0.31227355
0.12958099 0.01820000 -0.31755723
0.08256622 0.12339600 0.22114516
-0.01799422 0.00694549 0.26257199
-0.06433556 0.12339600 0.03965678
-0.08659168 0.02195700 0.29117604
0.2490794 0.02482491 -0.21610885
-0.07543208 0.07987700 0.38162425
-0.00247768 0.02328404 0.31016001
0.20233746 0.01820000 -0.27976405
0.18957607 -0.01536184 -0.38369708
0.08029476 -0.02963400 0.28256161
0.15475909 -0.02903376 -0.26876301
0.27800671 0.02212656 0.36556078
-0.24196996 0.04706964 -0.36160534
0.20611175 0.05544656 -0.2389235
-0.07007516 0.07987700 -0.02508536
0.12244121 0.10774034 0.38343701
-0.16904099 0.02112758 -0.29553232
0.0542781 0.10436077 -0.37954199
-0.21803804 -0.04264777 -0.21409818
-0.18702625 -0.05074877 0.22008847
-0.16904099 0.00074726 -0.35128392
0.17824601 0.01248738 0.22363097
0.01186908 0.12339600 -0.23228145
-0.29396001 -0.06039437 -0.31363648
-0.06193556 0.12339600 0.30414002
-0.030346 0.06346702 -0.2731131
-0.20257996 -0.05083735 -0.37332057
0.17808797 -0.03704500 -0.27864522
-0.03842204 0.07987700 -0.12867205
0.26575324 -0.07620897 0.23521663
-0.04953228 0.07987700 0.13250537
-0.21130971 0.02195700 0.27725836
0.19662293 -0.04085090 0.36201856
-0.02550332 0.11054701 -0.37954199
-0.08369992 0.07987700 0.03063097
-0.06792124 0.07987700 0.3415444
-0.16904099 -0.03655010 0.35976946
-0.21426406 0.00744714 0.37129024
-0.05198522 0.07987700 -0.13198685
0.2237787 -0.00349501 -0.38325281
-0.03620496 0.07987700 -0.03518233
0.19391549 -0.00340244 -0.20869372
-0.21229486 0.08095918 0.28349236
0.24339536 0.07099073 0.32478301
0.05324963 0.07987700 -0.30436028
0.19885198 0.00427799 -0.26876301
0.306566 -0.07897619 0.31846263
0.3007845 0.01820000 -0.3227583
0.124659 0.08836085 -0.29884503
-0.09863922 0.12339600 0.20918502
0.02437065 0.12339600 -0.0017289
0.01153572 0.07987700 -0.35117448
0.02400122 0.07987700 0.31403997
0.26036918 0.02195700 0.30178834
-0.16904099 -0.07663895 0.29955543
0.23729123 0.01820000 -0.27260125
0.27226491 0.04874487 -0.36036843
0.01779848 0.12339600 0.20304718
0.12303396 0.07987700 0.2393954
0.05341039 0.07987700 0.26901456
0.15696297 -0.02184818 -0.32355201
-0.05421398 0.12339600 0.1368768
0.22699997 0.05218593 -0.23467429
-0.16904099 0.03630806 -0.35383063
-0.04616318 -0.02355868 -0.26876301
0.124659 0.09861843 -0.20133225
-0.1904779 -0.02075025 -0.38219695
-0.0862204 0.07987700 -0.26415238
0.21663741 -0.02963400 0.29484593
0.306566 0.00367568 0.34608852
-0.27488613 0.00653333 0.26257199
0.2390497 -0.09249962 -0.26371003
-0.16904099 -0.04362315 -0.31836854
-0.02324861 -0.02600799 0.26257199
0.306566 0.00386482 0.23993756
0.00474599 0.12339600 -0.22107021
0.28378531 0.07391234 0.24980369
-0.03487324 0.07987700 0.09361824
-0.16626569 -0.02963400 0.30759363
-0.28092704 0.06451917 0.23822661
0.05412407 -0.01771876 -0.26876301
-0.18227527 0.04859666 -0.3604031
-0.10041023 -0.03704500 -0.309631
0.306218 -0.07825771 -0.26704846
-0.03649863 -0.01206771 -0.26876301
-0.08387044 -0.03704500 -0.30097162
0.17824601 0.00767402 0.36560383
0.11619432 0.12339600 0.15192286
0.21110506 -0.01389919 0.26257199
0.11513017 0.07987700 -0.27491565
-0.107333 0.11595702 -0.34158324
0.02494972 0.07987700 0.10216324
0.22944256 -0.05357928 0.2125996
0.17824601 0.02054525 0.24266263
0.00100504 0.12339600 0.05245236
-0.02679221 0.08135590 0.38343701
-0.18738046 0.07203254 -0.26516613
0.05208153 0.07987700 0.26440079
0.15717902 -0.02963400 0.30962214
-0.16904099 -0.01439720 0.32690983
0.17714768 0.05333363 -0.35576505
-0.09569583 0.12339600 -0.042807
-0.03782599 0.12339600 0.25465468
0.01550253 0.07987700 0.24962389
-0.05414074 0.07987700 0.22205869
-0.25798656 -0.05796430 -0.36886864
-0.01164662 0.07987700 0.35177552
-0.18469883 -0.07197755 0.2410148
0.26339009 -0.02811916 -0.20991706
-0.11112443 0.01820000 -0.29784732
-0.16904099 0.04849036 -0.2822624
0.11697021 0.07987700 0.35996012
-0.04796338 0.08251360 -0.37954199
0.06976313 0.12339600 0.11538235
0.09930282 0.12339600 -0.13184549
0.04545968 0.12339600 0.21656346
0.0120618 0.01820000 -0.28453693
-0.10665324 0.12339600 -0.29350321
-0.04604709 0.12339600 0.01007908
-0.00990158 0.12339600 0.20152739
0.17660201 0.03757853 -0.32808496
0.25109197 0.06175713 0.33789664
0.06204584 -0.03704500 -0.31276113
0.0024889 -0.00413920 0.31016001
-0.02389236 0.07987700 0.01922791
-0.28353718 0.03647866 -0.22103798
0.09707595 0.09196775 0.38343701
-0.2856676 0.06395045 -0.34227031
-0.16904099 -0.05880885 0.28228143
-0.06557972 0.07987700 0.04160865
0.23127252 -0.08903490 0.26269328
0.124659 0.09476631 0.32669274
-0.03251974 0.07987700 -0.31303565
0.10772691 0.12339600 -0.33954516
-0.2621932 -0.09730626 -0.30417593
-0.23052183 0.03116279 0.36499221
0.07051092 0.00791037 -0.32355201
-0.09558613 0.12339600 -0.11471919
-0.24199638 -0.02088199 -0.2085219
-0.20332381 -0.09135546 -0.32805642
0.12510057 0.00422137 -0.32355201
0.306566 -0.03853142 0.26376983
0.19402184 0.02898227 -0.21783084
0.02526361 -0.03704500 -0.31039368
-0.01265851 0.02195700 0.28031505
-0.00989299 0.12339600 -0.00260479
0.21405638 0.06246418 0.23055984
-0.28151571 0.02221068 -0.21411119
0.04777252 -0.01739422 -0.32355201
0.0344129 0.07987700 0.22825849
0.02431474 -0.03704500 -0.31148927
0.01399002 0.07987700 0.02021744
-0.00496841 0.07987700 0.19796354
-0.24973934 -0.01088818 -0.38337027
0.08438515 0.12339600 0.26582475
-0.09247717 0.12339600 -0.20127883
-0.28895101 0.00401412 0.30379013
0.20867521 -0.03704500 -0.29351666
0.00290123 0.07987700 -0.01827135
0.00705349 0.03157482 -0.26876301
-0.28266865 -0.02963400 0.27625404
0.306218 -0.01207671 -0.30584163
-0.00229669 0.07987700 0.18040372
0.306218 0.04274599 -0.25691284
-0.02637591 -0.03704500 -0.32084441
0.124659 0.08608275 0.24935046
0.2094886 0.07229787 0.32162725
-0.03926844 0.01820000 -0.28469472
-0.09193162 0.12339600 0.3332379
0.03047178 -0.00993445 -0.26876301
-0.1551979 -0.00104743 -0.26876301
0.28694273 0.06562360 -0.33943937
0.03987083 0.07987700 -0.19484942
0.12163801 0.07987700 -0.33373717
-0.04058658 0.07987700 -0.30435005
0.273392 0.07446868 -0.27542389
0.11116193 -0.02866650 0.26257199
-0.16904099 -0.07803303 0.28496499
-0.27116758 -0.02927168 0.26257199
0.28292329 -0.07295543 0.33655839
0.20582678 -0.02963400 0.27204322
0.1718791 0.02195700 0.30574122
0.17660201 0.04813736 -0.30666051
-0.01659441 0.12339600 -0.14788265
0.28745134 -0.03704500 -0.29736861
0.306566 0.05935828 0.27268504
-0.0038257 0.12339600 -0.37927973
0.19064019 0.03498436 0.20729867
-0.107333 0.11180702 0.16012423
-0.270681 -0.02963400 0.30548677
0.07793542 0.12339600 0.28635586
0.12413969 0.12339600 0.23528348
0.306566 0.00030234 0.24732472
-0.29427299 -0.07806775 0.25526288
0.22645458 -0.06487693 -0.22688655
-0.05663734 0.00147040 -0.26876301
0.01760077 0.04432105 0.26257199
0.21948248 0.07590410 -0.2863279
0.21713485 0.07886557 0.30482527
0.24453715 -0.02918072 -0.26876301
0.23794185 0.01399678 0.31016001
0.17824601 -0.00451829 0.20019975
0.124659 0.10878406 0.15002468
-0.08822985 0.12339600 0.24515541
0.17660201 -0.05915550 -0.3594585
-0.08084714 0.07987700 0.12919017
0.15802186 0.02195700 0.30681353
0.02350754 0.07987700 -0.26707444
0.30121341 0.07987469 0.27037181
-0.01818642 0.05548209 0.31016001
0.26666798 -0.03520675 -0.38073408
0.1744892 0.00282174 0.31016001
0.00528391 0.06874984 0.31016001
0.00122743 0.12339600 -0.31971554
0.306218 -0.08115227 -0.34551406
-0.06067193 0.12339600 -0.33056655
0.05332154 0.12339600 0.27726456
-0.01810135 0.11603928 -0.37954199
0.25290426 -0.01598036 0.36905628
0.01866896 0.12339600 -0.02375834
0.16163157 -0.03704500 -0.28939274
0.04121867 0.07987700 -0.2065305
-0.25860385 -0.01318171 0.31016001
0.13696346 0.01820000 -0.31647001
0.27787069 0.04144967 -0.3659664
0.03274155 0.02195700 0.26984149
0.17824601 -0.02186815 0.24080628
0.26022689 -0.00954571 0.36990368
-0.06557252 0.07987700 0.19977747
0.24984274 -0.07945355 0.23944496
-0.25052491 -0.07866758 0.32335569
-0.29396001 0.01492303 -0.37414609
-0.05914426 0.09100107 0.38343701
-0.29396001 0.03903616 -0.2476304
0.10556723 0.07987700 -0.19481206
0.03042934 0.12339600 -0.18920559
0.306218 -0.08717184 -0.2879016
0.306218 -0.02789784 -0.27658242
-0.02450402 0.04688750 -0.26876301
0.17660201 0.04555275 -0.24767114
-0.10767531 0.02195700 0.27021411
-0.10539861 0.12339600 0.1060822
0.08387431 0.12339600 -0.34999885
-0.27762428 0.05317607 -0.2344477
-0.16904099 0.00056095 -0.23658253
0.19689039 -0.03704500 -0.28312911
0.22810635 -0.03118883 0.36602041
0.03474483 0.07987700 -0.06270257
0.17660201 -0.07684376 -0.24466069
-0.05972831 0.07987700 -0.03372143
0.306218 -0.06431644 -0.25530166
0.23838486 -0.09822830 -0.30490314
0.0346451 0.07987700 0.28831881
0.124659 0.11248729 -0.33239545
0.21820466 0.00711520 0.19864983
0.18995867 -0.05359197 -0.21881609
0.306566 -0.02934071 0.34127298
0.306566 0.01132505 0.35390705
0.08906009 0.07987700 0.30346847
-0.16904099 -0.02639431 -0.25896888
-0.23729047 -0.05924761 0.22615134
-0.29427299 0.03318208 0.27283971
0.306218 -0.01439506 -0.21412773
-0.10135665 0.02195700 0.26396831
-0.27379538 0.08121707 0.28682911
0.17824601 0.01343858 0.31721714
-0.16904099 0.00575233 0.21769099
0.01466053 0.05383358 -0.26876301
0.07829457 0.12339600 0.28880553
0.306566 0.04058335 0.28438563
0.10409298 0.12339600 0.35939129
0.06888888 0.12339600 0.36080366
-0.107333 0.10924708 0.12998085
0.11983568 0.12339600 -0.05873857
0.03153107 0.12339600 -0.1544614
0.19645253 -0.04791904 0.35909108
0.00383354 0.07987700 -0.34517473
0.20779036 -0.00195061 0.26257199
-0.20120482 0.04779118 -0.36103726
0.05139084 0.07987700 0.3425219
0.03235784 0.12339600 -0.07737017
0.124659 0.09883894 -0.09293927
-0.04159398 0.12339600 0.23059307
-0.16904099 -0.00534666 -0.2499954
-0.17896775 -0.00128247 0.20439066
0.23342404 -0.00829629 0.31016001
0.08417225 0.00741852 -0.32355201
0.01367957 0.12339600 0.3098237
-0.27300093 0.07030328 -0.32964178
0.057676 0.12339600 0.36963433
0.2597622 0.02700174 0.20399242
0.18467879 -0.06270181 0.34793481
-0.05992097 0.00906321 -0.26876301
-0.06435216 0.12339600 -0.04267365
0.306218 -0.04112363 -0.23003159
0.0370874 0.07987700 0.22427445
0.16268314 0.01820000 -0.27274007
0.24179608 -0.00973933 0.26257199
-0.29396001 -0.01980392 -0.3722299
0.02232285 0.07987700 -0.01387409
-0.0848713 0.12339600 -0.1106411
0.26726305 0.01820000 -0.2718536
-0.25113581 -0.01661042 0.31016001
-0.107333 0.11747469 0.18417854
0.306218 0.04140583 -0.30180132
0.27264035 -0.03162831 0.36583838
0.306218 -0.06567443 -0.23138476
-0.18817301 0.02195700 0.28211957
0.306218 -0.07284804 -0.25148346
0.08881327 0.12339600 -0.14800305
0.10731206 0.12339600 0.08620522
0.01070149 0.07987700 0.10360606
0.05859094 0.07987700 -0.05687394
-0.19060602 -0.03058529 -0.20992274
0.29644185 0.05636679 0.34492183
0.10498046 0.12339600 -0.25893768
0.17660201 0.03203871 -0.28200124
0.07016265 0.12339600 -0.3644314
0.0834172 0.07987700 0.25383401
-0.25495088 0.05796325 -0.35027727
0.04406506 0.07987700 0.1253218
0.22062202 -0.08899877 0.30511237
-0.16904099 -0.01989713 0.2429774
-0.03567768 0.07987700 0.3778932
0.306218 -0.06506493 -0.33288656
0.04405982 0.12339600 -0.0652902
0.05573513 0.07987700 0.15763862
0.23699434 0.03781080 0.35906468
0.01007404 0.12339600 -0.37382486
0.17824601 -0.04245496 0.21560026
-0.05520057 0.12339600 -0.33654245
0.05445348 0.07987700 0.21744571
-0.107333 0.11522741 -0.36372568
0.17660201 -0.06978772 -0.32788942
0.06421197 0.12339600 -0.27427131
-0.107333 0.09498727 -0.07043377
0.0489648 0.12339600 -0.36060403
-0.23764529 0.03049388 0.36522805
-0.0526409 0.07987700 0.12647157
-0.29353325 -0.00570776 0.37230816
-0.24064738 -0.02963400 0.3017349
-0.24788553 -0.07874587 0.25415507
-0.07414072 0.12339600 0.28573692
0.26503246 -0.03485774 -0.26876301
0.04480428 -0.02580162 -0.32355201
0.306566 -0.04571316 0.23488736
-0.06321006 0.02195700 0.26343752
-0.29396001 0.04686830 -0.29498096
0.26170893 0.07475835 -0.31431045
0.22324018 -0.08276588 0.24662191
0.306566 0.03480815 0.34457526
0.09852301 0.07987700 0.10447693
0.19280393 -0.00118707 0.19755647
-0.29396001 -0.02367628 -0.23466902
-0.0271518 0.02637304 -0.26876301
0.124659 0.10738383 -0.24800323
0.124659 0.08478166 0.07070836
0.07602227 -0.02908709 0.26257199
0.05860022 0.12339600 0.30144825
-0.22550487 0.05639964 0.34796953
-0.29396001 -0.07948770 -0.3279367
0.17824601 -0.04107545 0.36104184
0.12082372 0.11928358 -0.37954199
0.17660201 -0.03141480 -0.2265237
-0.1773823 0.07796372 0.26513573
-0.24180932 -0.09674585 -0.30805894
-0.29427299 0.00196137 0.22355608
-0.05330709 0.07987700 -0.26946901
-0.00863074 0.07987700 0.24895023
0.0909011 0.12339600 -0.32873454
0.15187955 0.01074893 -0.32355201
-0.20719639 0.03540274 -0.22023341
0.01913255 0.12339600 0.15023713
-0.29427299 0.00353448 0.34445316
-0.08940052 0.12339600 -0.32246771
-0.030346 0.01987170 -0.29229375
-0.107333 0.10596874 -0.29470517
0.20844456 -0.09758657 -0.28215807
0.22473002 0.03285331 -0.21943422
0.306566 0.06476183 0.29503295
0.18027295 -0.02139902 0.19919133
-0.25112102 -0.01803421 0.20568466
0.30385202 0.01820000 -0.30912558
0.21359634 0.05170872 0.34856542
-0.17523957 -0.06567165 0.23365204
-0.05364467 0.07987700 0.17427203
-0.16904099 -0.01840845 0.22336192
0.11253209 0.12339600 0.04500274
-0.03678032 0.07987700 -0.09618721
0.20293007 0.06069735 0.22825715
-0.16904099 0.05118732 -0.28115116
0.00336872 0.07987700 0.34320429
-0.03651077 0.09830448 0.38343701
0.03005544 0.07987700 0.25498033
0.306218 -0.08215301 -0.2497448
0.03273213 0.12339600 -0.32924724
0.07503839 0.12339600 0.13927271
-0.06128432 0.12339600 -0.02417722
0.09358819 0.01820000 -0.3017012
0.09385994 0.08010937 -0.37954199
0.124659 0.08524778 0.1265573
-0.22971782 -0.00540881 -0.38305028
-0.29396001 -0.01507605 -0.3577269
-0.21992493 0.05982486 0.34397025
0.07621142 0.12339600 -0.36809803
0.06743371 -0.00391242 -0.32355201
-0.09620185 0.07987700 0.37637971
-0.01489132 0.04001301 -0.26876301
-0.2841739 -0.06756596 0.23586383
-0.29396001 0.03747648 -0.30420272
-0.21021354 -0.05298437 0.35498706
-0.29396001 -0.01194799 -0.22149719
0.00234929 0.07987700 0.00306671
0.15982933 -0.03704500 -0.29064475
0.22427596 -0.02610325 -0.20965159
0.03344469 0.12339600 0.30401373
0.20121257 0.00891974 -0.38161859
0.124659 0.09946237 -0.30841367
0.059482 0.12339600 0.00137572
-0.15616262 -0.02963400 0.28349307
0.306566 0.02951820 0.25256126
0.11393858 0.00041158 0.31016001
-0.10723902 0.12339600 0.36507221
0.10540323 0.12339600 0.32859576
0.14091606 0.02195700 0.27013152
0.11916883 0.07987700 -0.22697624
0.017949 0.06421089 0.27337628
0.17824601 -0.07554254 0.27965952
0.27961575 -0.02114103 0.19915735
-0.17480497 0.02195700 0.28196841
0.03492508 0.12339600 -0.25717141
0.0705232 0.12339600 -0.26053745
-0.107333 0.08803602 -0.03980159
-0.06126409 0.12339600 0.16363915
0.06350599 0.12339600 -0.1458224
-0.01950004 0.02101136 -0.26876301
0.17660201 -0.07126556 -0.30472909
0.06113007 0.12339600 -0.0769909
0.0177788 0.12339600 0.31839937
0.02850362 0.09642146 -0.37954199
0.124659 0.12037634 -0.15169315
0.20615235 0.00925795 0.31016001
-0.03352237 0.07987700 0.30739912
-0.24019897 -0.03693107 0.21184246
-0.04059203 0.12339600 0.18705525
-0.29396001 -0.01550307 -0.36920088
-0.2805755 0.00192241 0.26257199
-0.04667469 0.01820000 -0.30352512
-0.23670063 -0.01920962 -0.38238025
0.01819939 0.02195700 0.2824885
0.17824601 -0.03527471 0.29408365
0.05420614 0.07987700 0.31390911
0.08181751 0.12339600 0.18246278
0.05468965 0.12339600 0.26508909
0.17824601 -0.04213085 0.31004133
0.29544671 -0.00862866 0.26257199
0.03745156 0.07987700 -0.17937747
0.306566 0.02948599 0.24673944
0.2847349 -0.08918579 0.30369187
0.21022059 0.06895685 -0.33139197
0.11314152 0.01820000 -0.27970738
0.0996486 0.07987700 0.03256083
-0.29427299 -0.01960592 0.2136398
0.25709175 -0.02963400 0.30461303
0.02327061 0.01383440 -0.26876301
-0.19400985 0.04423271 -0.36383889
0.20698396 -0.00135496 0.36999964
0.25744749 0.02195700 0.28012325
-0.19394621 -0.07823296 0.32458852
-0.07008862 0.07987700 -0.00886545
-0.16904099 -0.03132997 0.33162004
0.25559694 0.05846410 -0.34907909
-0.107333 0.08595912 0.01064165
0.12319945 -0.03704500 -0.31958971
0.07932201 0.07987700 -0.22900592
0.01224195 0.12339600 -0.15670152
-0.16904099 0.02222899 0.24863401
0.27251764 0.02195700 0.30143573
0.26227316 0.05542581 0.22182155
0.0263147 0.07987700 0.05913936
0.26725317 0.00525459 -0.26876301
0.13451384 -0.00082466 0.31016001
0.18193603 -0.09112247 -0.26038521
0.18304635 -0.02673913 0.19989459
-0.00152496 0.02196267 -0.26876301
-0.23409937 -0.07927901 0.25526883
-0.07438748 0.01820000 -0.30534744
0.124659 0.10203166 -0.0670469
-0.16904099 -0.05437187 -0.27771923
0.17824601 -0.06089060 0.32158111
-0.05257104 0.07987700 -0.02792675
0.11799567 0.07987700 0.11045952
0.22531027 -0.01230855 -0.38409902
-0.27343952 0.08014496 0.27295746
-0.29427299 0.00861492 0.35311159
-0.29427299 -0.03771373 0.3358942
0.17660201 -0.00102529 -0.25018512
0.306218 -0.02081380 -0.28127536
0.05057891 0.02195700 0.27290269
-0.29396001 0.01640064 -0.25496337
0.10286785 0.07987700 -0.24155108
0.29977629 0.02888923 0.20477419
-0.23891113 0.00143081 -0.20865268
-0.03712503 0.12339600 -0.15101669
0.124659 0.11004390 0.19966268
0.01649044 0.07019646 -0.32355201
0.04575367 0.07987700 0.27604768
-0.24866917 -0.00395737 -0.20801141
-0.0558689 0.12339600 -0.2339074
0.11390142 0.12339600 0.07304763
-0.09301773 0.07987700 0.17479658
-0.06823999 0.12339600 0.30607838
-0.22627965 -0.07191606 0.240943
0.28507285 -0.06717285 0.22344075
0.10870043 0.07987700 0.25851261
0.306566 0.00467618 0.32013426
-0.0459684 0.07987700 -0.08685954
-0.07762439 -0.02868103 -0.26876301
-0.28329085 -0.06049297 0.34855671
0.22303244 -0.08201016 0.32273662
-0.18107263 0.07655145 -0.28405297
-0.26378579 0.05675831 -0.23899766
0.22922916 0.01418131 -0.21170026
0.02686501 -0.02072922 0.31016001
0.04334389 0.02195700 0.27742474
0.03806767 0.12339600 0.12981969
-0.19812018 -0.08515478 0.30239225
-0.04725129 0.12339600 -0.07211116
-0.107333 0.10391307 0.23990716
0.04672377 0.12339600 -0.27757821
0.17660201 0.06090312 -0.32132626
0.20234404 -0.06961443 -0.36141313
-0.16904099 0.00489681 0.33405846
-0.107333 0.09140489 0.33348429
0.08907138 0.11399009 0.38343701
0.29886973 0.03222117 0.20615421
-0.29069121 0.01525200 0.3706021
0.00669057 0.12339600 0.37207456
0.07294244 0.07987700 -0.14388517
-0.27956712 0.00285308 0.26257199
0.07456111 -0.03704500 -0.31465264
0.024442 0.02897639 -0.29834618
0.306218 -0.00236433 -0.36891663
0.306218 -0.06203926 -0.28633694
0.28658351 0.07934935 0.26638103
-0.1445023 -0.00612936 0.31016001
-0.05951187 0.07987700 -0.03058429
0.00320469 0.02195700 0.29850566
0.0332153 0.12339600 0.13790311
-0.28895101 -0.02490513 0.30015211
-0.0685317 0.12339600 0.25228482
-0.07914299 0.07987700 0.22990665
0.016455 0.08345752 -0.37954199
0.04425677 0.12339600 0.15782418
0.124659 0.09355555 0.22678433
-0.16904099 -0.05100546 -0.37167652
0.00501982 0.07987700 -0.26296305
-0.24634943 0.08005648 0.30147567
0.27410298 -0.04037868 0.20531985
0.2292283 -0.08761105 -0.34002738
0.19511034 0.02195700 0.29382302
0.07738445 0.12339600 0.31957151
0.02990034 0.07987700 0.10102053
-0.22450706 0.07676220 -0.30487336
0.23348875 0.00557069 0.26257199
0.14127259 -0.03704500 -0.32265547
-0.01452258 0.12339600 0.13651119
0.01336555 0.12339600 0.13060102
-0.16904099 -0.03396082 -0.3548487
0.124659 0.12093329 0.07924639
0.04735308 0.12339600 0.38336263
-0.29427299 -0.03066855 0.24442879
-0.09723666 0.12339600 -0.35849629
0.08088906 0.12339600 -0.27330606
0.01052829 -0.03704500 -0.31420829
0.27746641 -0.01628363 -0.38357573
-0.107333 0.08205631 -0.23368519
-0.25505831 0.08115786 0.29557819
0.02118318 0.07987700 -0.14801687
-0.21238645 -0.03326570 -0.38034447
-0.0244762 0.07987700 0.33663444
0.306566 0.05725048 0.23873388
-0.0313195 0.12339600 -0.32397101
0.06309356 0.12339600 0.3238725
-0.05280315 -0.02963400 0.30364896
-0.05045013 0.07987700 -0.09621223
-0.07916668 0.12339600 -0.00775626
-0.21100947 0.01594746 -0.37932746
0.306566 -0.08906094 0.2630616
-0.00313473 0.12339600 0.3147393
-0.03642867 0.07987700 0.24203317
-0.10061372 0.07987700 -0.10027283
-0.21737529 -0.00871414 -0.38352732
-0.23408444 -0.08090594 0.31700634
0.28922872 0.01902177 -0.37822981
-0.24028106 0.02195700 0.2955561
0.09975497 0.07987700 0.29124891
-0.08558123 0.12339600 -0.28947302
0.306566 0.01525135 0.218482
0.03516238 0.07987700 0.31877716
0.19699124 0.06332806 -0.24919456
-0.29427299 0.00608784 0.25001141
-0.19878328 -0.02482086 -0.20909055
0.2127391 -0.08697684 0.31074445
0.306566 0.03296772 0.20988652
0.29961421 -0.04333518 0.36098962
-0.2929457 -0.08667087 -0.33897993
-0.05436936 0.12339600 0.12071611
0.21409921 -0.02963400 0.29457654
0.22518153 0.07462053 -0.31535747
0.06748785 0.07987700 -0.11679727
-0.17459103 -0.08401029 -0.34301625
-0.09188383 0.07987700 0.13892236
0.20098509 -0.03704500 -0.26907951
0.02062436 0.12339600 -0.22544975
-0.230977 -0.08600836 0.29135403
0.017949 0.05472651 0.30936078
-0.29427299 -0.07087676 0.28066827
-0.08727267 0.07987700 -0.36764486
0.124659 0.10692091 0.12033405
0.306566 0.05138238 0.29726493
-0.05500102 0.12339600 0.16857558
0.19327492 -0.03000930 -0.38176886
0.306566 0.06175510 0.30832456
0.29376013 0.06862681 -0.25974623
-0.02113789 0.07987700 0.01431829
-0.29427299 -0.03107139 0.2309116
0.17714591 0.00979570 -0.26876301
0.04043404 0.07987700 0.08888683
0.09775685 0.12339600 -0.2030927
0.11531905 0.12339600 0.12828208
0.124659 0.11447709 -0.06696455
0.306218 0.05160465 -0.32045128
-0.29427299 -0.03283888 0.30531325
0.306218 -0.08895871 -0.27048796
-0.00742003 -0.03493373 -0.26876301
0.09501301 -0.01795605 0.26257199
-0.08881071 0.00355099 -0.26876301
0.10925164 0.12339600 0.05527868
0.306218 0.00898536 -0.32376991
-0.01775258 0.03334804 0.31016001
-0.16904099 0.06345858 0.25912627
0.08027344 0.12339600 -0.28686052
0.29795237 -0.07563638 -0.35567155
-0.16904099 -0.01887413 -0.33328688
-0.05958628 0.00330043 0.26257199
0.19488801 -0.09049670 -0.25887441
0.124659 0.08442275 0.19162438
0.00997773 0.07987700 0.33800525
-0.04281664 0.07987700 0.07480612
0.11217216 0.01085178 -0.32355201
0.21069237 -0.01549784 -0.38367917
-0.107333 0.10966627 -0.17845925
-0.09356101 0.12339600 -0.06248214
0.03536758 0.00566198 0.31016001
0.07363566 0.12339600 -0.37483197
-0.09147128 -0.01927062 0.31016001
-0.06499162 0.01820000 -0.30129775
0.00349845 0.07987700 0.21865213
0.2155996 0.06709206 0.33094366
0.21036382 -0.01637971 0.36900368
-0.107333 0.09909235 -0.36733038
0.19973398 0.05086895 -0.23319649
0.306218 0.03730069 -0.34825441
0.17824601 -0.05586658 0.3449625
0.0705964 0.01682096 0.31016001
0.20789077 -0.03649142 0.20370982
-0.07239828 0.12339600 0.30668729
0.17824601 0.00528622 0.34867461
-0.291015 -0.03496957 0.21115099
0.306218 0.03482576 -0.29461321
-0.16904099 0.06541746 0.30074766
-0.16904099 -0.03736428 0.35744584
0.01190823 0.07987700 -0.337862
-0.07067277 0.07987700 -0.09734661
-0.07201985 0.12339600 0.09166425
0.28049706 -0.03704500 -0.30201732
-0.28365892 0.07359772 0.25275466
0.05013694 0.12339600 -0.06167938
0.06052877 0.12339600 -0.1597581
0.09796477 0.00406668 -0.26876301
-0.19466924 0.06469508 0.23848334
-0.00299722 -0.02963400 0.26968392
0.01926132 0.12339600 0.12031815
0.00933063 0.12339600 -0.1145283
0.09513697 0.12339600 0.21938221
-0.107333 0.08646587 0.31462747
0.23750123 -0.02963400 0.27832174
0.07808217 0.07987700 -0.01498373
0.08497254 0.07987700 -0.00122029
-0.12515001 -0.03704500 -0.28948145
-0.08033515 -0.00194245 -0.26876301
0.08032801 -0.03704500 -0.27330118
0.124659 0.11336676 0.06329841
0.306218 -0.03590851 -0.21592667
0.17660201 -0.02951711 -0.21436754
0.19924801 -0.02103062 -0.32355201
-0.01087243 0.12339600 0.31590079
0.30054333 -0.03704500 -0.28459026
0.15939724 -0.03704500 -0.30815982
0.26814835 0.01820000 -0.28345788
0.08603413 0.07987700 0.13029208
-0.25675636 0.07997232 0.30192629
-0.16904099 -0.00534027 -0.24664806
-0.26742446 -0.01446105 0.37101046
0.17824601 -0.00636429 0.34002321
-0.08756837 0.01400454 0.31016001
-0.16904099 0.02546911 0.21228125
0.21802351 -0.02944829 0.3667413
0.22645604 0.01747110 0.20004502
0.28997864 0.07047071 -0.32773707
-0.00936888 0.07987700 -0.34278265
-0.0597715 0.12339600 0.12446563
-0.24666894 0.03870450 -0.36819132
-0.10632209 0.07987700 0.15393298
0.124659 0.10400527 -0.12643847
-0.05578867 0.07987700 0.30989805
-0.23493413 -0.04478341 0.36062589
0.07222154 0.10642549 0.38343701
-0.08020053 0.12339600 -0.19061301
0.22559419 0.07255127 0.24651835
0.18029779 -0.00859401 0.19750499
0.306566 -0.01460334 0.34544024
0.04388786 0.07987700 0.37284862
-0.20459453 0.05042978 0.22357682
-0.24755146 -0.06249424 -0.2252022
0.25346588 0.06889276 0.23893819
0.01959763 0.07987700 0.36890622
0.18381653 0.02126216 0.26257199
-0.16904099 0.06965626 0.29251584
0.07106892 0.07987700 0.11783373
0.20710237 0.01512126 -0.21208959
0.25978781 -0.02963400 0.26693396
0.122366 0.01103245 -0.26876301
0.16038674 -0.02963400 0.29973404
-0.06425222 0.07987700 -0.0580866
-0.2291021 -0.03155961 0.20994892
-0.21235161 -0.09036364 -0.2602415
0.03424702 0.07987700 -0.35039825
0.1413425 0.02195700 0.30461429
0.22459162 -0.07866399 0.238416
0.25572745 -0.05968248 0.35025159
-0.18450521 0.02195700 0.30672781
-0.04620681 0.07987700 -0.17656397
0.06335515 0.07987700 0.16011393
0.17824601 -0.05333404 0.33694126
0.1726575 -0.02963400 0.30969249
-0.20143716 -0.08192129 -0.24520803
-0.02156945 0.12339600 0.16241337
0.20989615 -0.08878673 -0.25474604
-0.01015856 0.04825768 0.26257199
0.26661055 0.00633287 0.31016001
-0.03591848 0.12339600 0.3195432
0.03621704 0.07987700 0.01143927
0.17660201 -0.09411067 -0.2740319
0.09569763 0.12339600 0.09840585
0.03388309 0.12339600 0.06369163
0.21885651 -0.00596413 0.37037535
-0.07492763 0.07987700 0.07408864
-0.17661585 0.02195700 0.26338634
0.30600775 -0.08973192 0.29954364
0.22453926 0.02195700 0.28116994
0.20497811 -0.09720070 -0.3127069
-0.19337693 -0.04118815 0.21353593
0.2863808 -0.03704500 -0.29930849
0.19755478 0.07440822 0.31653235
0.24283725 -0.03692891 0.36364298
-0.01563235 0.01666633 -0.26876301
0.04869929 0.11029926 -0.37954199
0.2451103 -0.02963400 0.2827467
0.04611509 0.12339600 0.20298662
-0.04513277 0.07987700 0.13114985
0.08267892 0.12339600 -0.13610622
0.26559374 -0.06272275 0.34791874
0.29004113 0.00732084 -0.32355201
-0.05837433 0.07987700 0.06059341
0.02883383 0.12339600 -0.22511723
0.28197244 0.00961687 0.26257199
-0.01854258 0.12339600 -0.321676
0.08552422 0.07987700 -0.0256628
-0.22421553 0.07373164 -0.32106508
-0.05176989 0.12339600 -0.36997731
0.08801098 0.12339600 0.12333512
0.04905069 0.07987700 0.37760315
-0.22216543 -0.02473830 0.36909067
0.30197358 0.04341824 0.35492649
-0.0091996 0.07987700 0.24314918
-0.09264339 0.12339600 -0.18224101
-0.16904099 0.03086837 -0.34862455
0.11880316 0.11611200 -0.37954199
0.17660201 -0.01050087 -0.34203577
0.306566 0.02056267 0.22568295
0.3020344 -0.05365477 0.35487675
0.04103008 0.12339600 0.26688438
-0.04205428 0.07987700 -0.14267423
-0.03722 0.07987700 0.06751836
0.08877757 0.07987700 -0.15857511
0.0040647 0.07987700 -0.01547968
0.20433646 -0.02963400 0.29115272
-0.24673371 -0.09479505 -0.32003602
-0.02585804 0.00833546 0.26257199
-0.22758932 -0.05876691 0.22559008
-0.09039465 0.12166915 0.38343701
0.306218 -0.03623344 -0.35794886
-0.17491971 -0.08604690 0.29085576
-0.16904099 0.04511770 -0.2934725
0.30157338 0.07022618 -0.32832745
-0.29396001 0.00610397 -0.36148013
0.11500586 0.12339600 -0.26070123
-0.01141588 0.07987700 0.01154805
0.23638478 -0.06091075 -0.3680919
0.06270564 0.07987700 0.31983045
-0.107333 0.10666198 -0.08860496
-0.02042402 0.12339600 0.26427341
-0.22326926 -0.04888393 0.21881037
0.27922223 -0.09633815 -0.31895766
0.29098368 0.07971298 0.26914342
0.00924437 -0.00424919 -0.32355201
0.09599607 0.01923859 0.26257199
-0.04517207 0.12339600 0.31041654
-0.29427299 0.05675900 0.31979733
-0.17048061 -0.02115473 0.36976008
0.17660201 -0.08800015 -0.2559679
0.124659 0.10451017 0.19806053
-0.00305326 0.12339600 0.14885251
0.10452834 0.01820000 -0.29059678
0.00956523 0.12339600 -0.20109654
0.306566 0.01060813 0.21409519
-0.07672944 0.07987700 0.33504121
-0.00399845 0.12339600 0.08577466
-0.29427299 0.05656500 0.27805654
-0.23896375 -0.09662382 -0.3089045
0.306218 0.01368345 -0.31371236
-0.27630975 0.02751678 -0.37436588
0.13395391 -0.01400231 0.31016001
-0.08631869 -0.03087315 -0.26876301
0.23068738 0.06621045 -0.33802255
0.10975399 0.07987700 0.16320862
0.09245089 0.07987700 0.21421622
0.01618983 -0.01852390 -0.32355201
0.2112444 0.01372093 0.36801424
-0.29427299 -0.04700333 0.26029336
-0.03842021 0.07987700 0.19938291
-0.2265935 -0.07668529 0.24985034
0.24541458 0.01867980 -0.21356354
0.00812249 0.06301819 -0.26876301
-0.28483703 -0.03824577 0.21230592
0.00704865 0.12339600 0.26597648
-0.2112697 -0.00709107 0.20483935
0.22590692 0.08101097 0.27900371
-0.02741531 0.02195700 0.29238334
-0.27367502 0.02195700 0.29609145
0.25423219 -0.08826386 0.25989438
-0.107333 0.11793028 -0.24850899
-0.25606961 -0.03871960 0.36352806
0.14930579 -0.01565697 0.26257199
0.20566576 -0.05437156 -0.37279599
0.17041887 -0.03704500 -0.31979261
-0.08041332 0.07987700 0.17672449
-0.09947747 0.12339600 0.06806226
0.306566 -0.01613911 0.31860858
0.27729093 0.07463772 0.25155459
0.24421001 0.07459279 -0.31556818
-0.08309864 0.12339600 0.12094783
-0.05378076 0.07987700 -0.25208539
-0.22373262 0.02706629 0.36643657
-0.03313765 0.11361442 0.38343701
0.20351665 -0.07633214 -0.35476484
-0.00283476 0.07987700 -0.37269868
-0.22425586 0.00231969 -0.38193488
-0.107333 0.10001661 -0.1099031
-0.107333 0.12179184 0.17299092
-0.252438 0.00032784 0.31016001
0.26388791 -0.03548516 0.20329305
0.306566 0.05805065 0.26168433
0.20200693 0.08058190 0.27574422
-0.26416408 0.02195700 0.27361911
0.10673013 0.07987700 0.17922527
-0.08661589 0.12339600 -0.16434961
0.22702602 -0.08778512 0.30879285
-0.030346 0.02931628 -0.31277016
-0.107333 0.11789244 0.21476167
0.17824601 0.01165017 0.21110693
0.0050882 0.07987700 0.12672957
0.11276891 0.07987700 -0.09853905
-0.10532682 -0.02200697 -0.32355201
0.19074502 -0.01215579 -0.20781493
0.0358556 -0.02963400 0.26965835
-0.01019437 0.10866552 -0.37954199
0.03410299 0.01820000 -0.30581455
0.24860941 0.07482728 -0.31378687
0.09443638 0.12339600 -0.17865048
-0.2741501 0.03509318 0.2136283
0.23981625 0.00561030 -0.32355201
0.07270603 0.07987700 -0.29015924
0.0928569 0.12339600 -0.11811317
0.01352971 0.12339600 0.13913581
-0.00010741 0.12339600 0.20188218
-0.16904099 0.03694934 -0.35907133
-0.05673476 -0.01950700 -0.26876301
-0.24511453 0.07777842 -0.29633486
-0.29427299 0.00277963 0.26092989
-0.11388773 -0.03704500 -0.31488732
0.02936972 0.07987700 0.00892259
0.306566 -0.03138929 0.23685641
-0.00522495 0.12339600 -0.16122385
-0.19626096 0.02195700 0.30613835
0.10147197 0.12339600 0.33001349
0.04794028 0.12339600 0.30793513
-0.06232775 0.07987700 0.1258925
0.20715857 0.05001993 -0.232545
-0.0346575 0.00948501 0.31016001
0.17660201 0.05653147 -0.34245163
0.10336483 0.07987700 -0.14073813
-0.29396001 -0.06018443 -0.32641909
-0.00313113 0.12339600 0.29244158
-0.03528026 0.12339600 0.2308314
0.124659 0.11401745 0.17356944
0.08104124 0.01456243 0.26257199
-0.28502764 0.04691916 -0.36172381
-0.21524987 -0.06865681 0.33945277
0.01470093 -0.01725025 0.31016001
-0.00212161 0.12339600 -0.35555869
0.00468149 0.12339600 -0.22561937
0.08302053 0.12339600 -0.35929218
-0.06786386 0.12339600 -0.14285472
0.00820009 0.07987700 0.18883001
0.26899379 -0.07523748 -0.23574362
-0.00033729 0.12339600 -0.06716083
0.124659 0.12337236 -0.13316525
0.024442 0.04714997 -0.30615084
0.10437793 0.12339600 -0.09408803
-0.29139583 0.01521988 0.20658733
0.08016299 0.07987700 0.31150395
0.11418743 0.12339600 0.18591804
0.30268557 -0.01051707 0.26257199
0.17824601 0.07087456 0.31217394
0.24885693 -0.02983713 0.36658025
-0.16904099 -0.04891483 -0.322483
0.01311904 0.12339600 0.11943491
-0.08961941 0.12339600 0.30162875
0.27997451 -0.07603624 -0.23678455
-0.16209588 -0.03428399 -0.26876301
-0.20203723 -0.08832956 -0.25515224
0.306218 -0.06390693 -0.30779975
-0.29396001 -0.07699619 -0.28015303
-0.14152995 -0.01464602 -0.32355201
-0.27921124 0.07580312 0.25900872
0.306566 0.01974044 0.25944952
0.03108692 0.12339600 0.01648303
-0.06635125 0.02192709 0.31016001
-0.29396001 -0.00875938 -0.25343648
0.11564504 0.07987700 0.16732526
-0.24186201 0.03760469 -0.22188001
-0.16904099 0.03741416 0.21930433
0.23801038 0.00446037 0.31016001
-0.02670472 0.12339600 -0.27262769
-0.21087407 -0.08657064 0.28360087
0.306566 0.03952846 0.29689014
0.26070662 0.02630416 0.2037035
0.00666516 0.07987700 -0.18081946
-0.16904099 -0.01491475 -0.25735906
0.00098334 0.12339600 0.33491866
-0.030346 0.05005138 -0.30625548
0.05745995 0.01820000 -0.31525036
-0.030346 0.02555894 -0.27513131
0.10567157 0.12339600 0.02216439
0.26371642 -0.07008955 0.2272418
-0.0401445 0.12339600 0.12369184
0.07928069 0.02195700 0.26941949
0.306218 -0.01487404 -0.37981476
-0.16904099 -0.00624520 0.32954365
-0.24450932 -0.07579165 -0.35345511
-0.05061694 0.07987700 -0.17736992
0.11787155 0.01436802 0.26257199
0.124659 0.11735556 -0.00618592
0.05286543 0.12339600 0.0635291
0.306566 0.00401201 0.30612729
-0.29427299 0.03676395 0.21650137
-0.19228059 -0.07906774 0.32222058
-0.107333 0.09008071 -0.03132577
-0.05111326 0.12339600 -0.13327145
-0.29182135 -0.08080760 0.3172853
-0.01896384 0.07987700 0.34696767
-0.29289472 0.00267488 0.26257199
0.0290634 0.12339600 -0.20697435
-0.19290855 0.06836772 -0.33448396
0.04281794 0.07987700 0.29778155
0.22363871 -0.03704500 -0.27638184
-0.0239517 0.04548988 -0.32355201
-0.00145253 0.07987700 -0.00324081
-0.00914144 0.02496662 -0.32355201
-0.08979767 0.12339600 0.21349473
0.0766008 -0.00792915 -0.26876301
0.024442 0.07656242 -0.30606426
-0.27742389 -0.05087284 -0.37330638
-0.18997093 0.07231371 0.32554373
-0.22080863 0.08087573 0.28241269
-0.02261605 0.07987700 -0.02880157
0.21327371 -0.06218795 0.21920565
-0.107333 0.11842815 0.16657251
-0.107333 0.11071459 -0.09530886
0.03765618 0.07987700 -0.31204862
-0.107333 0.12255748 0.02389759
0.05997248 0.07987700 -0.12694001
-0.01937289 0.12339600 -0.20257969
0.11282228 -0.00555421 0.31016001
0.09076193 0.12339600 -0.08900872
0.124659 0.10316378 0.18998066
0.124659 0.11830121 -0.0502948
-0.107333 0.10392606 0.29670962
0.25840155 0.04304102 0.21231834
-0.21631501 -0.02963400 0.30097527
0.17984942 0.05824544 -0.24257096
0.27878666 -0.03650916 -0.26876301
0.306566 -0.02395810 0.27060986
0.124659 0.11720030 0.08024537
-0.02356049 0.07987700 0.37802239
0.17824601 -0.00522546 0.22172074
0.0296047 0.07987700 -0.10081738
0.27314125 -0.02963400 0.30246836
0.0178574 0.12339600 0.05257608
-0.08855356 -0.01090462 -0.32355201
0.124659 0.11003388 0.16810228
0.03757669 0.01820000 -0.29644358
0.03998921 -0.01512589 -0.26876301
0.02865207 0.07987700 0.13308357
0.29821959 -0.08224297 0.32217449
-0.03010433 0.05199949 -0.32355201
0.12434233 -0.00731874 -0.26876301
-0.12449373 -0.01778425 0.31016001
0.124659 0.08380170 -0.14947839
0.01713517 0.07987700 0.05935822
0.20542237 -0.02963400 0.30226056
0.03102095 -0.02963400 0.29250447
0.15252354 0.01820000 -0.27656725
0.306566 -0.08112595 0.24586608
0.306218 0.00651394 -0.32524894
-0.00716974 0.12339600 -0.36308108
-0.19495618 0.06795271 -0.3355222
0.306218 -0.00645033 -0.24048583
0.124659 0.09053631 -0.26666727
0.20780941 -0.07934762 0.3282281
0.1339517 -0.02963400 0.29262305
0.0392644 0.07987700 -0.36023741
0.18613017 0.01820000 -0.29354269
0.23227017 -0.07210046 -0.35950547
0.306218 0.03943997 -0.25049661
-0.07341799 0.12339600 -0.16576709
-0.00570596 -0.02963400 0.28746756
-0.29396001 -0.02873195 -0.22625429
0.024442 0.03343056 -0.28485529
0.19221317 -0.02963400 0.30177008
-0.06295861 0.12339600 -0.28108886
-0.107333 0.11792554 0.27108505
0.05750159 -0.02847089 0.26257199
-0.09211771 0.12339600 0.36888867
-0.16904099 -0.02882398 -0.25443971
0.124659 0.11160959 0.11213378
-0.107333 0.09095861 0.02094495
0.08177317 0.07987700 0.33295175
0.08800465 0.07987700 0.29214811
0.04892733 0.12339600 -0.13454272
-0.06893117 0.07987700 0.07805994
0.23381381 0.01570912 -0.32355201
0.2269323 -0.08740237 0.2578147
-0.08235172 0.07987700 0.04394289
-0.04758149 0.07987700 -0.27021296
-0.09214672 0.07987700 -0.14182398
0.14157888 0.02195700 0.30517826
-0.0762032 0.12339600 0.357742
-0.17405423 0.02221379 0.20789282
-0.07988279 0.12339600 0.1470084
-0.107333 0.10243223 0.11900896
-0.18769929 -0.05815046 0.35056283
-0.08892528 0.07987700 0.12727396
0.10694036 -0.00197758 -0.26876301
0.29004822 0.00347811 -0.20959974
-0.24716473 -0.02963400 0.28662444
-0.06542425 0.01820000 -0.29407616
0.306218 -0.03013264 -0.33900082
-0.29427299 -0.04546240 0.27895926
0.124659 0.12264419 0.2558177
-0.10471559 0.12339600 -0.08677848
0.09305707 0.07987700 -0.20554066
-0.16904099 0.07028016 -0.27176892
-0.11237677 -0.00892476 -0.32355201
-0.02964 0.06978304 0.26952174
0.05230042 0.12339600 0.07986361
0.17660201 -0.09679179 -0.28562284
-0.29427299 -0.00039327 0.33995682
-0.04347022 0.07987700 0.30441123
0.03671465 0.07987700 -0.03636428
-0.26086737 0.04887811 -0.36018151
0.1073826 -0.01063948 -0.32355201
0.03262699 0.00857003 0.26257199
0.306218 -0.08706065 -0.25931472
-0.10376794 0.12339600 -0.35002548
-0.0618532 0.12339600 0.31201871
0.07106997 -0.01281560 0.31016001
-0.07126496 0.12339600 0.146576
0.26579079 -0.01351121 0.19815255
-0.09635084 0.12339600 0.10833656
-0.10748528 0.00578019 0.31016001
-0.01627013 0.07987700 -0.03662792
-0.29427299 -0.07266038 0.32887289
-0.08886293 0.12339600 0.14180512
-0.2476784 -0.06639931 -0.36256136
0.306218 -0.07431865 -0.27992153
0.18897958 -0.07871671 0.3290503
-0.21068013 0.06748111 -0.2545543
0.1172943 0.07987700 -0.10616104
-0.030346 0.07454933 -0.30312194
0.20806903 0.07048627 -0.32769951
0.0672468 0.07987700 -0.12158939
-0.06450989 0.02195700 0.26325532
0.10324816 0.12339600 0.25591687
-0.107333 0.10094521 0.3284989
-0.18974574 0.07569916 -0.31380536
-0.00422302 0.09787980 -0.37954199
0.3001427 -0.08483558 0.25161831
-0.09070987 0.07987700 -0.32750059
-0.06548642 0.12339600 0.30820942
-0.00049438 0.07987700 0.05305003
0.28684803 -0.05281639 0.35552005
0.08644825 0.07987700 -0.34457575
0.306566 0.01578751 0.28603256
0.10667481 0.12339600 -0.36081189
-0.22989775 0.03030733 -0.37316914
0.11624142 -0.00254808 -0.26876301
0.29677086 -0.06797654 0.22448811
-0.27775991 -0.09484782 -0.31991298
-0.28895101 0.01451567 0.28059314
0.07119272 0.07987700 0.03328165
0.03280509 0.12339600 0.36588187
0.01807494 0.12339600 0.24232023
-0.20661871 0.05375992 -0.23518927
0.124659 0.09462655 0.11846176
-0.107333 0.09670959 0.2863294
-0.25547325 0.08041563 0.27645964
0.04736325 0.12339600 0.25239071
0.22927316 0.01702105 0.26257199
0.306566 0.03369958 0.29583403
0.07754172 0.07987700 -0.24141289
-0.04850676 0.07987700 0.25683359
-0.00898911 0.07987700 -0.1622019
0.124659 0.08336589 -0.25078964
-0.03946076 0.12339600 -0.27005786
0.19837023 -0.09060572 0.29290662
0.3029993 0.03934372 -0.2243526
0.00922862 0.06836039 0.31016001
-0.07658869 0.12339600 -0.32910963
-0.28895101 0.01069711 0.30984744
0.26292413 -0.01276304 -0.26876301
-0.00317491 -0.01746260 0.31016001
0.30525208 0.02660685 0.20382887
0.07203712 0.07987700 0.2652388
0.09101946 0.12339600 0.16262883
0.08270627 -0.02963400 0.26901302
-0.29396001 -0.03417840 -0.21584605
0.11963078 0.00672376 0.26257199
0.306566 0.00586203 0.30592501
0.17660201 0.05411450 -0.25299386
0.124659 0.08546603 0.16279824
0.26229342 0.05387815 0.22063398
-0.29021522 -0.05577549 -0.21991282
-0.1733368 -0.09682703 -0.28307443
0.29003209 0.05153095 0.34870181
0.14016941 0.02195700 0.28875394
0.11636378 -0.03704500 -0.28226329
0.22518202 -0.00654848 0.3702984
0.05047962 0.07987700 -0.36183389
-0.02587072 0.12339600 -0.27183594
0.03180383 0.07987700 -0.02510133
0.10238814 0.07987700 0.18951909
0.07610567 0.11670393 0.38343701
0.27291957 -0.02963400 0.26459003
0.17660201 -0.06621642 -0.33378236
0.124659 0.10762974 -0.12633006
-0.29427299 0.03327490 0.28521231
-0.03802907 0.12339600 -0.23394948
-0.07820858 0.07987700 -0.0475356
-0.29396001 0.05779450 -0.26539183
-0.107333 0.10032560 0.3301642
0.21984658 0.04229301 0.35578985
0.26269087 -0.02963400 0.26795076
-0.2662938 0.03134856 0.21183554
-0.05013306 0.07987700 0.05894388
0.23701245 0.03011593 -0.3736346
-0.29427299 -0.04406455 0.26653448
0.0115529 0.12339600 0.02031959
-0.05987552 -0.03254856 -0.26876301
-0.01401889 0.07987700 0.12926563
