# .PCD v0.7 - Point Cloud Data file format
VERSION 0.7
FIELDS x y z
SIZE 4 4 4
TYPE F F F
COUNT 1 1 1
WIDTH 1392
HEIGHT 1
VIEWPOINT 0 0 0 1 0 0 0
POINTS 1392
DATA ascii
0.04888779 -0.01810349 -0.28835535
0.11944 -0.00769723 -0.23281423
0.09884488 0.01227602 -0.02416365
0.09165218 0.01436789 -0.04110918
0.05595786 0.01606984 -0.06047612
-0.02160784 -0.01609798 -0.1310907
0.29061773 0.01678607 -0.05492535
-0.16931564 0.01357988 -0.07042591
-0.06578207 0.02024449 -0.0727154
-0.15921693 0.01399237 -0.07817286
0.0596772 0.00827886 0.09766872
0.05524029 -0.03327936 -0.14576934
0.05426497 -0.03831041 -0.15055819
0.04884686 -0.00207710 -0.2898449
0.11410509 -0.01605597 0.0499916
-0.09102985 -0.00832265 -0.23320562
0.06806165 0.01442849 0.07236425
-0.06521891 -0.01878672 0.0714398
0.0631857 0.00680388 -0.20778505
-0.10515493 0.01568820 0.04775404
0.00766599 -0.01715398 0.13471646
-0.07383346 0.02322532 0.08220118
-0.03315866 -0.01965917 -0.02037763
0.06032769 0.03174387 -0.1822399
-0.03202298 -0.00492986 0.3429326
-0.04258474 -0.02577217 -0.29320051
-0.12136359 0.01768498 -0.00998343
0.07276433 -0.00185181 -0.2331048
0.21269231 0.01553120 -0.10010353
-0.04158326 0.04284375 -0.24993889
0.27827699 0.01691523 -0.08744465
-0.29971422 0.01754836 -0.10133251
-0.04850268 0.01824087 0.13866187
-0.03080253 0.00831507 -0.27394404
0.12638957 -0.00260985 0.02633849
-0.04494111 0.02093199 -0.17080101
-0.02696963 -0.01842127 0.24136903
0.01684858 -0.03234524 0.06263377
0.03391473 0.00346930 -0.01291124
0.07780431 0.01520000 0.07246959
-0.04246391 0.05834171 -0.2444851
0.06677768 0.00052533 0.02225697
-0.15566541 0.01890054 -0.03333309
-0.04611714 0.01667658 0.03799137
-0.0617948 0.02282604 0.05534122
-0.06730256 0.00936252 0.10059593
0.00814585 0.00181400 -0.29420014
-0.03650169 -0.00502575 0.2828408
0.01222698 -0.01500053 0.24372407
-0.02887452 -0.02374491 -0.10389084
-0.06003313 0.01692049 0.11648352
0.07248455 -0.00509000 -0.03270584
0.09357611 0.00601263 -0.13768298
-0.00878918 -0.01812259 -0.10822503
-0.0204664 -0.02075433 0.02208716
0.0601833 0.02246351 0.12917928
-0.02049863 -0.03488366 0.04821787
-0.07026934 -0.00364455 0.01104478
0.07168797 0.01654360 -0.19594436
-0.06015501 0.01291947 -0.03783115
0.02230108 -0.01275019 -0.16618258
-0.04712889 -0.03692997 -0.04899752
0.00180137 0.02709618 0.22891396
-0.10425474 0.00474252 -0.02084944
-0.07134351 0.01344985 0.10898535
0.06600782 0.08615251 -0.25481471
-0.05632904 0.02281798 -0.02227072
0.08221729 -0.00055788 -0.17014433
0.049972 0.01322838 -0.09479799
-0.04227992 0.02430532 -0.18977481
-0.23276772 0.01491198 -0.05475748
-0.12387033 0.01225037 -0.03153193
0.08568099 0.01537487 -0.08874877
-0.07303071 -0.01116770 -0.14171585
0.05674361 0.01041384 -0.26732543
-0.0282563 0.00670785 -0.1970432
0.03345177 0.00172860 0.02169451
-0.07335964 0.00580757 0.07894805
-0.32527483 0.01536355 -0.13292563
-0.01203223 -0.01037062 0.37951847
0.04555345 0.01620540 -0.04824396
0.0116795 -0.02046770 -0.01394358
-0.09584889 -0.00761914 -0.26780679
0.00409211 0.00907077 -0.17073584
-0.04553175 0.10351240 -0.29252562
-0.04815971 -0.03509148 -0.01456838
0.14743451 0.01459343 -0.07462348
0.05959957 0.01376314 -0.24311681
0.1118093 -0.00788401 -0.23454436
-0.0329192 0.01109781 -0.08581744
-0.04659466 0.04666217 -0.23686324
-0.11096853 0.02201990 -0.00603887
0.11007774 0.02251116 -1.981e-05
0.13733292 0.01652284 -0.08539928
-0.074495 0.02534058 -0.02599212
0.08289553 -0.01228780 -0.15155775
-0.03335679 -0.01122801 0.26328259
-0.04554629 -0.03201323 0.02002148
0.11772431 -0.01258346 -0.04616245
-0.02004163 -0.02241501 0.03924131
-0.02509262 -0.01820364 -0.10801242
0.07232949 0.01364767 -0.24096495
-0.08790056 0.01348045 -0.05358501
-0.0370297 -0.00002183 0.30478504
0.11169323 -0.00797401 -0.21696474
-0.00031429 -0.02168843 0.23562483
0.10051733 -0.00648057 -0.26280048
-0.16748039 0.01882519 -0.03813449
-0.06601918 0.02414651 0.01933397
-0.03717781 0.01420148 0.21433861
-0.05305416 -0.02220403 -0.28554029
-0.05847875 -0.02394566 -0.24383793
-0.051686 0.01942000 -0.1710252
-0.0672755 -0.02745114 0.01932822
0.02030912 -0.00374465 0.13125428
0.32465796 0.01732539 -0.0712344
0.12008097 0.00066400 0.02147434
-0.03525761 0.01220831 -0.05813659
-0.03947719 0.00038117 -0.27354066
-0.1232533 -0.01728500 -0.01658079
-0.02941074 0.00888249 -0.14176877
-0.19551875 0.01699894 -0.09351569
-0.01022135 0.01134300 0.14412694
-0.02869229 -0.01189899 0.34102097
-0.15661838 0.01899872 -0.04278837
0.0546157 -0.03607466 -0.03434177
-0.01906089 0.03469169 0.1263833
-0.02873049 -0.02896970 -0.15886299
-0.02363517 -0.01783714 0.19378384
0.04575161 0.01429510 -0.13257351
0.0108211 0.01861469 -0.06487258
-0.10983744 -0.01167812 -0.02471635
-0.08219683 0.00047388 -0.03069087
-0.08456011 -0.00841175 -0.23693289
0.19041989 0.01573633 -0.1034423
0.29636797 0.01535211 -0.10111608
-0.13082093 0.00015741 -0.02531657
0.08896974 0.01427746 -0.09335521
0.00103844 0.02388435 0.23814014
-0.15937824 0.01776858 -0.02757092
-0.04126467 0.01525092 0.10612822
-0.02630142 -0.02378460 -0.18228732
-0.0160615 -0.02655600 0.07946685
0.00139325 -0.00206621 -0.25337917
0.06360038 0.02253469 -0.17561808
0.09199964 0.00958846 -0.1030038
0.12734235 -0.00784702 -0.21652178
0.03260354 0.01902778 0.11885635
0.09221313 -0.00115277 -0.10770005
-0.12862798 0.00096314 -0.03610218
-0.03370728 0.00487521 0.00456148
-0.13130758 0.01488693 -0.09390156
0.01204371 -0.02633947 0.0316385
-0.11356869 -0.00065516 -0.03887205
-0.03309337 0.02061138 0.16665871
0.07977692 0.01576246 0.08682038
0.00067055 -0.02083171 0.03809492
-0.03025947 -0.02066627 -0.27119354
-0.0429228 0.01608572 0.08032192
-0.08648191 0.01322186 -0.04733905
0.0756178 0.01974319 0.11585044
-0.04961403 -0.03417360 0.00102947
-0.22967841 0.01436996 -0.09948548
-0.030463 -0.00302005 0.127606
-0.24691383 0.01385708 -0.09068786
0.0729261 0.01526711 -0.22347256
-0.14669987 0.01365701 -0.06817625
0.15585069 0.01527136 -0.00287012
-0.02694368 -0.01824955 0.14718017
-0.18817683 0.01483978 -0.10270949
-0.2581844 0.01638884 -0.11676814
-0.01137996 -0.00173987 -0.26757545
0.07636825 -0.02299030 -0.27459612
-0.02027333 0.00072923 -0.25918601
0.14999316 -0.00239504 -0.25112891
-0.01247948 -0.03018795 0.01567509
0.07317389 0.02345668 0.08029044
0.11384442 0.01902638 0.0266693
-0.06896098 -0.01492932 -0.11769087
-0.06278682 0.01235679 -0.00993895
-0.06690125 -0.01849223 -0.14919743
-0.00899201 -0.02076991 0.27878601
0.04101021 -0.03023141 0.03712678
0.0063163 -0.02727917 0.13770565
-0.07489838 0.01624600 0.12577037
-0.01844538 0.03744563 0.19092804
-0.03720879 -0.00002087 0.21940907
-0.04884953 -0.03513684 -0.01649649
0.08675313 -0.00079969 -0.19560145
0.07283687 0.01520779 -0.11743533
0.10852009 -0.00108556 -0.18842166
-0.02352078 -0.03404384 0.14684952
0.16074259 -0.00709937 -0.25444062
0.18968008 0.01559808 -0.10022898
0.1132705 -0.01451221 -0.01760856
-0.02304219 -0.02092196 0.09382101
0.08513711 0.02388803 0.04052472
-0.12053585 0.00066400 -0.03014054
-0.16605387 0.01345908 -0.06704745
0.07489919 0.01405676 0.0440266
-0.0679959 -0.00862139 -0.21709291
0.07586162 0.01721092 -0.18276423
-0.0424093 0.05606051 -0.27115221
-0.04414984 0.01478511 -0.23364754
0.00384258 -0.00084912 0.34307264
0.03301996 -0.01098865 0.02347385
0.09557466 -0.00846156 -0.20183165
0.08819944 -0.00876623 -0.17843071
0.04393287 0.01627878 -0.04104639
0.07699479 -0.00513925 -0.26486139
0.00677431 0.03900062 0.10119274
0.06027241 0.04060036 -0.22117056
0.00720705 -0.01995970 -0.08039302
0.10298349 0.01870891 0.00016841
0.01088088 -0.02668875 0.04494176
0.10173229 -0.00153162 -0.24917027
-0.02760824 -0.01214082 0.34681065
0.04008458 0.02100790 -0.05885369
-0.06450328 -0.01032217 -0.07157835
0.00117057 -0.02095310 0.11444
0.00431817 -0.01617984 0.17321495
-0.06922708 0.02057655 -0.06968645
0.00927963 0.03933387 0.13114621
-0.08334546 -0.00202954 -0.09598498
0.06102368 0.01729601 -0.16897912
0.32901299 0.01577000 -0.06458627
0.01327191 -0.02068843 0.01488302
0.06282088 0.02072606 -0.26341704
-0.18111286 0.01634772 -0.10647315
-0.08139935 -0.00108713 -0.01444817
0.16186706 -0.00242760 -0.25507966
0.04488078 0.02218066 0.03936477
-0.0459278 0.01472674 -0.23880154
-0.01220282 0.04524662 0.19574802
0.09143136 0.02363088 0.05574576
0.03475464 -0.01899650 -0.07110956
0.16776414 0.01245697 -0.02894333
0.03936845 0.02080200 -0.01753911
-0.12279743 -0.00771825 -0.25067436
0.03247407 0.00924655 -0.16768838
0.01858153 -0.00397200 -0.28914424
0.20679735 0.01438824 -0.07355122
0.24055108 0.01834166 -0.05336743
-0.08227899 0.00315084 -0.12377456
0.15703038 0.01757643 -0.06311104
0.07608238 -0.00486758 -0.00441144
-0.01275076 -0.02096800 0.13925395
0.06471695 -0.02547156 -0.28333795
0.02110707 -0.01225930 0.1067196
0.07240024 -0.01814949 -0.06583879
0.14242587 0.01574765 0.00441748
-0.03871029 0.01840477 -0.20292099
-0.06001388 -0.01229421 -0.27051443
-0.04408713 0.00987270 -0.07072044
-0.04535725 0.02073147 -0.20810915
-0.25511857 0.01348200 -0.0977171
-0.10766196 -0.01864640 -0.06453085
0.01166023 -0.01562735 -0.13489201
0.05805464 -0.03713441 -0.17122982
0.2343093 0.01441397 -0.03564458
0.19962719 0.01681316 -0.08455311
-0.21368536 0.01406828 -0.08964844
-0.03700369 0.00844109 0.20620736
-0.07061524 -0.00350739 -0.27417291
0.11772896 -0.00439082 -0.04628773
0.10432027 -0.00532572 -0.27767289
0.00216169 0.02667126 0.29116879
-0.06822862 -0.02465596 0.03169356
0.0651733 0.03108409 -0.20801081
0.12110604 -0.00756256 -0.2514025
0.1164066 0.01929078 0.00397141
-0.0446929 0.07550523 -0.28781198
-0.04237465 -0.03409985 -0.18999808
0.07202416 0.00245661 0.05288497
0.00341355 0.05081565 0.16193838
0.04119034 -0.01307384 -0.24041338
-0.00272356 0.01134300 0.23479542
0.01829547 -0.00206353 0.22953596
0.00249271 0.04743149 0.23592614
0.0283448 -0.01690410 -0.12011005
0.11339168 -0.02032691 -0.00845808
-0.10299117 0.01524111 0.00710137
0.09288462 0.00432704 -0.12247155
-0.05044483 0.02318538 0.01207912
0.06584107 0.01808559 -0.14896146
-0.02739732 -0.02694847 -0.18221068
-0.10131162 -0.00826618 -0.20902945
-0.10956048 -0.00179363 -0.26377973
-0.03177738 0.01578295 0.12734775
0.10656425 -0.00150506 -0.23574169
0.06650535 0.04885865 -0.24927498
0.06976396 0.08897273 -0.25884328
-0.01311259 -0.01858658 -0.10328804
-0.00874262 0.00837876 0.23814063
-0.10389822 0.02328191 -0.02333097
-0.0034825 0.01134300 0.24167101
0.12888003 -0.00678834 -0.19925685
0.06696873 -0.03716410 -0.13129431
0.11428269 -0.01728500 -0.00884443
-0.01298845 0.02407621 0.32300004
-0.03526427 -0.01338659 -0.28013086
-0.09943747 0.01503815 0.04213129
-0.02487048 0.03061054 0.26809646
0.00544759 0.02007068 -0.06759697
-0.06033867 -0.03617119 -0.07373422
-0.07417595 -0.00798343 -0.1993587
0.09779156 -0.00287243 -0.26274202
0.11624559 -0.00736371 -0.1881455
-0.07502624 0.01618626 0.12361906
-0.14620771 -0.00225036 -0.26481834
0.07113523 0.01338351 0.05805208
0.02739259 0.01828257 -0.06495523
-0.02895003 -0.00428952 -0.04892566
-0.16022775 -0.00378080 -0.29384391
0.01286862 -0.02717774 0.03417841
0.0550723 -0.03256345 -0.22530912
-0.21915628 0.01568337 -0.12368132
-0.0083319 0.02801010 0.30415628
0.08287238 -0.01147853 -0.10596829
-0.06354317 0.02382924 0.04595808
0.0503364 -0.03492483 -0.00882285
0.32038385 0.01727116 -0.08313718
-0.01966367 0.04330657 0.14870347
0.06351882 -0.00537086 0.0641218
0.05205233 0.01490872 -0.16594213
0.27164052 0.01835400 -0.05497441
-0.05593031 0.01715889 0.04934945
-0.05946329 0.01296361 -0.05138509
-0.064805 -0.01945349 -0.18147227
0.06695435 0.01588022 -0.17591566
0.00682651 -0.02084647 0.04759156
0.06489084 0.02878870 -0.23921194
-0.02191687 0.04908532 0.20805332
-0.01836111 -0.02544214 0.0882988
-0.0244758 -0.01914610 -0.19218735
-0.01831884 -0.02204400 0.04530506
0.25726238 0.01810838 -0.05036316
-0.01799362 -0.02451105 0.04103011
0.10400007 0.01827882 -0.04209137
0.23974969 0.01595885 -0.03190252
0.04573326 0.01670697 0.07078433
0.14701579 0.01499874 -0.08388579
0.0648698 -0.01470648 -0.26916759
-0.21016868 0.01465519 -0.10231709
0.12986921 0.00048889 0.04061617
-0.0764233 0.01474617 0.0418824
-0.0240676 -0.01608713 -0.16314293
0.0422582 0.01271122 -0.13069259
-0.11466641 -0.00135047 0.02163913
0.06456449 0.06552809 -0.22018375
0.0601141 0.03036089 -0.22632378
0.00530784 -0.04039646 0.03405875
-0.04802084 0.01779243 0.14472118
0.05647602 0.01718543 -0.017268
-0.1103764 0.01904522 -0.0139829
0.07283542 0.02331114 -0.01237997
-0.03604878 0.01063539 0.00319823
-0.0106092 0.01073046 -0.15383174
-0.25972487 0.01778685 -0.08817463
-0.1011313 0.01205410 -0.03125566
-0.30271131 0.01703746 -0.11178276
-0.03249846 0.00349872 -0.28363808
0.00092648 -0.02025792 -0.04171493
-0.08243364 0.00708280 -0.11974389
-0.01523675 -0.02197374 0.30909891
-0.08831597 -0.00852382 -0.19965616
-0.01024465 -0.02186637 0.24602126
-0.04581702 -0.05176438 -0.12795136
0.03760179 0.01962293 0.11332699
0.28517434 0.01608908 -0.04917396
-0.29190849 0.01653851 -0.11904437
0.02312512 0.01367891 0.15065229
-0.1940763 0.01361096 -0.07556332
0.00408681 0.00129350 -0.27138096
0.012434 0.03482708 0.13662336
0.20618512 0.01547493 -0.09841608
0.04726845 -0.01167341 -0.26990541
0.00151221 0.04816494 0.12785689
-0.03825156 -0.02486256 0.03477353
0.23928834 0.01729792 -0.07714752
-0.03740746 0.00962863 -0.15775907
-0.15950967 0.01250491 -0.04378493
0.07752389 -0.01282771 -0.26409698
-0.09742268 0.01476457 0.03417038
-0.08907707 -0.00107918 -0.21531849
-0.01298541 -0.01335874 -0.16094306
0.06210799 0.01936339 -0.07548701
-0.08433361 -0.00404785 -0.28464529
-0.09322576 -0.00624292 -0.2829469
0.006868 0.03351033 0.12732553
0.05972239 0.03568932 -0.21832839
-0.07895901 -0.00197050 -0.25722551
0.09464598 0.02409928 0.01453332
-0.01013607 -0.01072417 -0.18988103
0.03552943 -0.02539494 0.03217346
-0.03176262 -0.01139887 0.17715911
-0.07195317 -0.01073106 -0.17334311
0.01409794 -0.02313581 0.1305221
0.18418666 -0.00274820 -0.27311595
-0.07882066 -0.00483331 -0.14906122
0.0061164 0.00577753 -0.20542333
0.29459649 0.01393880 -0.07323948
0.12840721 -0.00524426 -0.18866154
0.05691596 0.02395280 0.01826434
0.17995108 -0.00677972 -0.27173731
-0.14797677 0.01437397 -0.01928576
-0.10769158 -0.01677006 -0.06381429
-0.04666975 -0.02730079 -0.28285056
0.04425523 -0.02269168 -0.22902739
0.08061767 -0.01396894 -0.15058543
0.08886824 -0.00480526 -0.13884546
0.22511769 0.01598547 -0.10217156
-0.03672349 0.01349728 -0.05403622
0.0455913 0.00851365 -0.19964859
-0.00603056 0.03795571 0.06441138
-0.01282347 -0.02099472 0.27884548
-0.00417255 0.01984248 0.19981634
0.08970017 -0.00854760 -0.21483084
-0.00706333 0.02111588 0.25269423
0.08704458 -0.00566061 -0.04094244
0.06677386 0.05217473 -0.25035166
-0.16945065 0.01773103 -0.07277989
-0.03523352 -0.01961094 0.01529647
-0.03769684 0.02019894 -0.05832204
-0.13906364 0.01879635 -0.04368708
0.09493858 0.02373269 0.04728818
-0.22338371 0.01808643 -0.07462652
0.06416513 0.01265193 -0.23603565
-0.08773963 -0.00854067 -0.19807626
-0.01708877 0.00835892 -0.17913898
0.00543358 -0.04008309 0.03853942
-0.05231017 0.01634690 -0.11823707
0.0570876 0.01519480 -0.207321
-0.06947069 0.01887908 0.15326088
0.017112 -0.01642567 0.16444432
0.08336485 -0.00826657 -0.26721669
0.03314966 0.00184438 0.03026419
-0.02990066 -0.01781505 -0.07012621
0.31929 0.01572661 -0.1110996
-0.01876968 0.02716186 0.18880441
0.04992606 -0.02970454 0.03689961
-0.00104747 -0.02096800 0.16073488
0.19637495 0.01436497 -0.07238075
-0.01500035 -0.01093074 -0.18780508
-0.02534183 -0.02039030 -0.17270815
-0.0276645 0.03412241 0.23755482
0.01930054 -0.01570237 -0.13374448
-0.00224919 0.03466017 0.04723894
-0.14546815 0.01901197 -0.0401419
0.11082768 -0.00792313 -0.23171841
0.04556939 0.01948517 -0.08453938
0.04761691 0.01682148 0.07077136
0.06350296 0.05948759 -0.24653905
-0.07520901 -0.00657626 -0.15685154
-0.05236181 -0.01486849 -0.27127675
-0.08861404 -0.00608898 -0.17226064
0.32320783 0.01694401 -0.06691515
0.23791424 0.01469551 -0.08249518
-0.05319355 -0.03752435 -0.08890538
-0.0251295 -0.03424603 0.13233123
0.06124519 0.01545802 -0.22962867
0.03672862 0.02077270 -0.01502873
-0.03683154 -0.02962683 -0.27292201
-0.01867854 -0.02096800 0.1805496
0.0617712 0.04164825 -0.19133543
0.08532668 0.01675504 -0.15828289
0.10275034 0.01581333 0.05277095
0.0426985 -0.02032867 -0.21941814
0.06868362 0.01450585 0.07287276
0.03821156 0.00920486 -0.16788681
0.01072607 -0.02494352 0.12076528
0.10342988 0.00737913 -0.01630791
-0.0377425 -0.00212592 0.26790177
0.05056516 0.01721911 -0.00125696
0.08419378 -0.01159360 -0.13592309
0.06064539 0.04336829 -0.2069791
0.15163946 0.01563664 0.0005161
0.01905538 -0.03494492 0.07206606
-0.00435506 -0.02241101 0.28990265
0.03373327 -0.00415199 -0.0531849
-0.0684412 -0.02531861 -0.08667406
0.12961676 -0.00156610 -0.01956787
-0.04462743 0.10176707 -0.30993834
-0.03760926 -0.03367621 -0.22999557
0.02521774 0.00385007 -0.22497822
0.06813945 0.08859119 -0.28120835
-0.10683621 -0.00214076 -0.27400062
0.00844139 -0.02581558 0.14209164
0.09856536 0.01473364 -0.03349826
-0.02828564 -0.01696381 0.06021175
0.06416386 0.02000825 -0.24171203
0.01963205 0.01882456 0.18789351
-0.05074107 -0.03070046 0.02666629
0.14781372 0.01290743 -0.01483153
-0.02099923 -0.00656772 -0.23617385
0.07905876 -0.02196721 -0.15522075
-0.02607135 -0.02627600 0.15657943
0.07925971 0.02395954 -0.04696579
0.05809554 0.01457236 -0.16388184
0.07320788 0.01735181 -0.17809871
-0.03711756 0.01209380 -0.19650499
0.09070245 0.01273189 -0.07446731
-0.07180064 0.01547655 -0.09689813
-0.01816397 0.01326609 0.21907803
-0.03934536 0.01933284 0.09634835
0.1455022 -0.00211750 -0.23878654
0.14188118 0.01686773 -0.07792627
0.16237936 0.01718385 -0.01166609
-0.04246664 -0.03408198 -0.13631142
0.11481505 0.00066400 0.01642316
0.06345141 0.01001149 -0.20666143
-0.02567387 -0.02350725 0.05484685
0.15368613 -0.00279093 -0.26813597
0.04518806 -0.01029558 -0.06697842
0.04216806 -0.01443032 -0.24785754
0.06503994 -0.01674255 0.04948333
0.08693883 -0.00683911 -0.23261469
0.01884251 0.00249254 0.22427607
0.06362413 0.02392504 0.00431136
-0.06480383 0.01836699 -0.15513481
-0.07660089 0.01573110 -0.0783605
-0.00027297 0.01801520 0.13398192
-0.04154224 -0.02628217 -0.29216975
-0.07171797 -0.00437297 -0.28528988
-0.03732868 -0.03576092 -0.14755826
0.01147061 -0.00397200 -0.2522995
0.06736221 0.00493243 0.00248537
-0.06660106 0.00987179 0.04951875
0.0151488 -0.03524337 0.07083742
0.19761862 0.01262167 -0.03589271
0.05465275 0.00772357 -0.06658283
-0.02515255 0.01741320 0.06216942
0.05909627 0.02084319 -0.16867527
0.06091952 -0.03027990 -0.26370167
0.25308226 0.01539895 -0.09954262
0.05821016 0.01604175 -0.10518171
0.0835891 0.01363106 -0.04863174
-0.07118798 -0.00885168 -0.18977309
0.06856129 0.07440176 -0.27072308
-0.01002827 0.01389683 -0.12037049
-0.12613936 -0.00263000 -0.00790171
0.0962033 0.01749644 -0.05927834
0.0062227 -0.00397200 -0.26840159
-0.01463372 0.02450731 0.13897151
-0.01123275 0.03088283 0.21030228
-0.0942991 0.01561644 -0.1041635
0.0384964 -0.01052435 -0.19620103
-0.02539331 -0.01627272 0.33347369
0.08829293 -0.00099898 -0.2278622
0.02042736 0.00890753 0.13269584
-0.23085527 0.01475928 -0.1073647
-0.00939807 -0.02096800 0.1628018
-0.01266318 0.02078622 -0.01673649
-0.03269831 -0.01362819 0.22004921
-0.02571167 -0.03057565 0.09055602
-0.11417649 -0.01728500 -0.0681283
0.17518037 0.01638856 -0.09132231
0.06410378 0.04272066 -0.20279564
-0.04126797 0.03713749 -0.25503044
-0.31492384 0.01553479 -0.13475266
-0.00934314 0.02260700 0.22952786
0.12984263 -0.00287474 0.02448476
-0.28613589 0.01755698 -0.09825385
-0.31473789 0.01508719 -0.1259958
0.08138014 -0.01435881 -0.18590166
0.07408789 0.02348704 0.0774655
0.03694442 0.01068125 -0.15235354
-0.0686154 0.01567829 -0.087783
0.05041273 -0.03831109 -0.08191763
-0.09455303 0.01960054 -0.00498987
-0.03354173 -0.00731361 0.17993025
-0.24136009 0.01374409 -0.08708152
-0.02847921 0.03474495 0.19232863
0.13301769 0.01231157 -0.01341637
0.07990235 -0.01396204 -0.13388267
0.02110674 -0.01551745 -0.13570857
-0.08189033 -0.00114713 -0.02444816
0.17191907 0.01652997 -0.08838774
0.05983682 0.02132297 -0.03124356
-0.24670714 0.01656867 -0.11093549
0.11850682 0.01471026 0.00689555
0.02597463 -0.02052280 -0.00619236
-0.11447317 -0.01624871 -0.03974959
-0.04552832 -0.03943665 -0.17484554
-0.0634564 -0.02868715 0.03337018
0.12319774 -0.00263000 0.02051853
-0.04253227 0.05841382 -0.2665904
0.00281148 0.02436221 0.18880586
0.10052259 0.01439309 0.00280368
-0.21357238 0.01746823 -0.04989039
0.14911609 0.01596131 -0.09799096
0.01166605 0.00181400 -0.24515609
0.03338095 -0.00638007 -0.03212295
-0.05379091 0.00998105 -0.14922519
0.05871639 0.01532709 0.04086849
0.11794962 -0.01865876 -0.03688503
-0.00681855 0.01160603 0.24690715
0.01379264 -0.00481778 -0.25402437
0.03413283 0.00061702 -0.02871297
-0.02278505 -0.02082152 0.22048052
0.01939948 0.01181046 -0.14116044
0.08757139 0.02387507 0.04072023
0.02130011 0.01813649 0.02349476
0.06814476 0.01668055 -0.19089602
0.11364798 0.01280822 -0.0034656
0.01509606 -0.03042620 0.03858425
-0.0460342 0.01700903 -0.18006765
-0.02120878 0.05048917 0.1946611
0.04711393 -0.02912906 -0.20113436
-0.06789678 0.02338116 0.07627706
-0.07550189 -0.00545026 -0.14892592
-0.0270878 -0.01652322 -0.09370152
0.15348668 0.01856421 -0.04016537
-0.02294442 0.02811473 0.09260659
-0.01427628 -0.03035564 0.32338629
0.01255469 -0.02278390 0.15242154
-0.01290394 0.00621104 -0.20164694
-0.1016341 0.02391329 0.02235615
-0.02247615 -0.00780845 -0.29204847
-0.15497284 0.01274619 -0.04855942
-0.04513752 0.09703662 -0.30323085
0.06669367 0.02392320 0.0442289
0.13176299 -0.00183062 -0.22402224
0.00641752 0.02035280 -0.06205374
0.03388097 0.01925548 -0.05628921
0.26555575 0.01797209 -0.06415801
-0.01370045 -0.02054138 -0.0053141
-0.03469208 0.00960659 -0.0067346
0.15615591 0.01697634 -0.07676889
-0.01444577 0.02722300 0.21909118
-0.02796819 -0.02126953 0.05617615
-0.32775172 0.01588625 -0.13853576
-0.06415948 0.01544612 -0.09669375
0.05893113 0.01101348 0.10192536
-0.10772652 0.00146006 -0.01660599
-0.04066809 0.02902666 -0.21002805
0.10891358 -0.00757690 -0.18089796
-0.02474939 -0.01864668 0.08783883
-0.02871517 0.02058518 0.00773756
0.00623289 -0.03927720 0.03871303
0.01531265 -0.03291810 0.01594223
-0.04030065 0.02319882 -0.19958785
-0.0358964 0.02204853 -0.07513304
-0.29568421 0.01484501 -0.11849314
0.20694883 0.01861552 -0.04396597
-0.06075946 0.01542298 0.01078756
0.16487472 -0.00678265 -0.26829931
0.10638336 -0.00278646 -0.26488863
-0.04048489 0.02553140 -0.21656661
0.04836626 -0.01356097 -0.06684533
-0.13711907 -0.00387789 -0.23771717
0.06397019 0.02371827 0.06206176
0.21244727 0.01452192 -0.02728313
-0.01401295 0.05026368 0.21444739
-0.01870197 0.02690622 0.18854679
-0.03619078 0.01986341 0.0696117
-0.01075829 0.04895976 0.2108491
-0.04279106 -0.00704415 -0.27367885
-0.26455603 0.01354727 -0.08666383
0.07820356 -0.01099103 -0.05585438
0.02407832 -0.02026066 -0.0404325
0.04620857 -0.01137470 -0.28910001
0.03144211 0.00913481 0.06379933
-0.06576131 -0.02029586 -0.16395929
0.05964289 0.01163036 -0.1618844
-0.06754457 0.00435421 0.05427239
-0.00981404 0.02074517 0.33319423
0.19929267 0.01490900 -0.02044445
-0.06925487 0.02374471 -0.00317229
-0.06688563 0.00520604 0.1160742
-0.02900069 0.00745069 -0.1041552
-0.03627187 0.00595847 0.3195813
-0.06667956 -0.02377810 -0.13005835
-0.03127892 0.00008830 -0.02218696
-0.04727983 -0.03798152 -0.08380154
0.02891333 0.00146630 -0.25000144
-0.00930876 0.04663578 0.11196177
-0.31882321 0.01611670 -0.13248128
-0.10630992 -0.00799382 -0.24977901
0.01902066 -0.01251927 -0.16886711
0.15814293 0.01422422 -0.0668175
-0.02077257 -0.02493433 0.06138208
-0.11853634 0.00066400 0.00598106
-0.07729576 0.00207380 0.03335056
0.07852358 0.02273878 -0.05587459
-0.02118244 -0.03395222 0.02599657
-0.08564505 0.02280265 -0.02334115
-0.02601516 -0.00434188 -0.27612948
0.13104962 0.01763725 -0.05929931
-0.20292212 0.01682963 -0.04098593
0.07824791 0.02415822 0.02076102
-0.09115974 0.01412644 -0.0691338
-0.05234603 0.01376060 -0.17874901
0.01247166 -0.02857719 0.15322734
0.07923115 0.02374563 0.05435201
0.0069878 0.01241629 0.32160116
0.09681209 0.01976942 -0.00727677
-0.00594042 0.01134300 0.22668359
-0.15094398 0.01697890 -0.01860686
-0.20047062 0.01796828 -0.07197921
0.01851077 -0.01059481 0.18215928
0.06527375 0.03273047 -0.21919561
-0.04174211 0.04310984 -0.28951273
-0.03101958 0.01936129 -0.08674836
0.12489682 -0.00306014 -0.27464732
-0.00941668 0.00008395 0.37906997
-0.04966494 0.01467530 -0.09396303
-0.00267204 -0.02121370 0.20667892
0.03302752 -0.00881194 0.05649826
0.11860965 -0.00192953 -0.25911355
0.0584003 -0.03363506 0.00328485
0.13897417 -0.00735913 -0.04816542
0.05515119 0.01678778 0.10015217
0.11059647 -0.01479093 0.03466047
-0.22964209 0.01632101 -0.11417114
-0.07306394 0.01710364 0.14896375
0.06273352 0.01950801 -0.26316494
-0.08331974 0.01235827 -0.05356162
-0.05962129 -0.00131905 -0.2438273
0.01131802 -0.02553799 0.18454415
-0.08274673 0.01363447 0.01444707
-0.01880002 -0.03564053 0.03899837
-0.11016254 -0.02077230 -0.07376847
0.04797115 0.01965830 -0.08036408
-0.04445454 -0.04568027 -0.15197987
0.01660671 -0.01729630 -0.11627555
-0.04185162 0.03923425 -0.21150734
0.10975154 -0.00807055 -0.20750371
-0.0653005 0.00962918 -0.03256212
0.03424718 -0.01866258 -0.00473448
0.10017273 0.01278322 -0.03938718
0.00801554 0.03747729 0.23042782
-0.2171069 0.01801861 -0.05508654
-0.10405109 0.01959814 -0.02002722
0.08472822 -0.00232877 -0.02360387
-0.09982257 0.01262140 -0.03582672
0.06879734 0.07628983 -0.28290889
0.1090196 -0.01773667 0.03843404
0.1446051 0.01732168 -0.0677865
0.08790302 -0.00448223 -0.23577561
0.01580202 -0.02085336 0.05343926
-0.04244949 -0.03262133 0.01001136
-0.13565329 0.01304743 -0.05210287
0.06500332 -0.00396264 0.05154595
0.01094564 0.00609840 -0.2018335
0.01267137 -0.01214211 -0.17329328
-0.03309051 0.01757853 0.09689691
-0.13839946 0.01945958 -0.03003507
0.09875827 0.02294123 -0.02937703
0.06459938 -0.01747395 0.05302166
-0.0181916 0.03185395 0.28414525
-0.02284155 -0.00746150 -0.22639344
0.0455378 -0.02989048 -0.17705121
0.00900667 -0.00466161 0.32397093
0.10934435 -0.00810214 -0.20322703
0.08118726 0.01469919 -0.12463776
0.05499609 -0.03225779 0.01629742
-0.02385564 -0.00037487 -0.28566719
-0.01689118 0.01790237 -0.01576733
0.05470555 0.02065955 -0.14227773
-0.02236316 -0.00139208 -0.22304104
0.06317011 0.05248766 -0.20313288
0.02565422 -0.02075210 0.02716394
-0.08101263 0.01085967 -0.1567704
0.0646743 0.01290051 -0.06478761
-0.11541155 -0.00648830 0.01226536
-0.04529372 0.02472877 -0.17551165
0.0967749 -0.00122754 -0.23025863
-0.05331213 -0.03739685 -0.1178135
-0.03484649 0.00187556 0.32741681
-0.04257401 -0.03484228 -0.01519569
0.03556241 -0.01340246 -0.12949537
0.05206233 -0.02879774 -0.24462291
0.09422286 0.00862347 -0.16128304
-0.03146358 -0.01599876 -0.03012735
-0.06607402 -0.02380721 -0.1334751
-0.02569241 -0.02066352 0.01009163
-0.00887261 -0.00951736 -0.20313833
0.11616109 -0.01484474 -0.06310291
-0.01866119 -0.02292759 0.1126637
-0.0158083 -0.02186533 0.24572523
0.01894063 0.01827471 0.07042179
0.06248529 0.01600015 -0.19986121
0.068664 0.01086537 -0.26697572
-0.11588029 -0.00736780 -0.27357485
-0.17576988 0.01884299 -0.04988683
-0.32634013 0.01537761 -0.10989876
-0.0057 -0.02095737 0.11684666
-0.04680309 0.01702687 -0.01364795
-0.01830318 0.03723509 0.12298917
-0.07436208 -0.01087844 -0.11409345
-0.09684468 0.02115435 -0.04265639
-0.15882602 -0.00630328 -0.2726797
-0.03463 -0.00410069 0.22235568
0.156365 0.01428649 -0.06813569
0.06139342 0.01554395 0.12090208
0.16893209 0.01872637 -0.03789001
0.21654331 0.01729531 -0.07508927
0.2232679 0.01643214 -0.09342199
0.05564985 0.01742848 -0.10919516
-0.00501214 0.00690395 -0.19399935
0.03158255 0.00178794 -0.24649424
-0.03271414 0.01687497 0.11253613
0.01260167 0.01833385 -0.06994002
-0.0215418 0.03278888 0.19127343
-0.03786181 -0.01045739 0.06653133
0.08619231 0.01404530 -0.04440073
-0.03990951 0.01706814 -0.1487159
0.05134799 0.02019497 -0.06156233
-0.02528328 0.03199198 0.13043214
0.05786412 0.01484687 0.08455133
-0.12879097 0.00005494 -0.06108401
0.07178315 -0.01471410 -0.27094207
0.01251756 -0.02623896 0.02448907
-0.00080539 0.03278891 0.27623812
-0.1139967 -0.00606038 -0.20803456
0.13387361 -0.00777729 -0.2208104
0.04601234 0.00504882 -0.25596493
0.08231753 -0.01211149 -0.21024194
-0.04339477 0.02458688 -0.18402536
0.02351715 0.00860460 -0.17484486
-0.02978172 0.01028493 -0.17395746
-0.08536986 0.02029931 0.10334165
-0.13223652 -0.00213785 -0.27203417
-0.01331864 0.01882115 -0.02521994
0.10220712 0.01488034 0.03022725
0.2732088 0.01633118 -0.04637699
-0.03806275 0.01187622 0.07114972
-0.00248508 0.02779132 0.29605448
0.01347133 -0.01605999 0.21481475
-0.03719059 -0.00467461 -0.27931714
0.00870848 -0.00587502 0.3224915
0.01587406 -0.02263297 0.07312083
0.25645541 0.01773112 -0.06882776
0.00240781 0.01977016 -0.07029856
-0.08459551 -0.00109667 -0.23511162
-0.06784322 0.02319313 0.09377514
-0.04710406 0.03354949 -0.21790387
0.27000079 0.01657600 -0.04676798
0.07673432 0.01720457 0.02780965
0.04113669 0.01501197 -0.10645147
0.09370709 -0.00388289 -0.2725667
0.08205843 -0.00866292 -0.23102056
-0.01168778 0.03031006 0.19879123
0.16549133 0.01659726 -0.08631735
-0.01536618 -0.02215071 0.26379274
0.11552681 -0.00749578 0.00626452
0.01166007 0.01661067 0.2884966
0.10410638 0.02399490 0.01121452
-0.10279326 0.01306948 -0.04672748
0.03953181 -0.03239488 -0.04797256
0.14670159 0.01669095 -0.08242275
0.0041722 -0.00393890 -0.2570983
0.02248633 -0.01393418 0.08041663
-0.00870421 0.02580817 0.2122589
0.01924653 -0.02084167 0.04666937
0.00528481 -0.02096800 0.14127543
-0.0363076 0.01867950 0.25305232
0.2140602 0.01649409 -0.09166051
0.03915408 0.02062435 -0.02506411
0.19860359 0.01321458 -0.04722914
-0.17059042 0.01424765 -0.08611156
0.22678724 0.01550403 -0.10034276
-0.01359021 0.04358538 0.19471359
0.05963807 -0.04084590 -0.1848166
0.07305768 -0.00298901 -0.04895648
0.11529992 0.00086480 -0.03254934
-8.498e-05 0.03724749 0.06093647
-0.12477419 -0.00764660 -0.25905922
0.01845216 -0.01575898 0.15377062
0.02768962 0.00844399 -0.17636568
-0.02179617 -0.00600646 0.3825745
0.1527598 0.01695819 -0.00675322
0.08172525 -0.01533900 -0.21413882
-0.02920923 0.01670235 0.10896008
-0.0438809 0.05948144 -0.28120766
-0.0429789 0.04599134 -0.21411573
-0.11645197 -0.00263000 -0.04729186
0.00614023 0.00181400 -0.25392312
-0.06144872 -0.00080799 -0.23887155
0.02684232 0.01630526 -0.09604381
-0.00230985 0.01522034 -0.10607494
0.12289453 -0.00198909 -0.24910975
0.0705727 0.01634308 0.118897
0.05645035 0.01469614 -0.18113738
0.06750681 0.06112116 -0.25040582
-0.04348868 0.01675833 0.15431132
-0.04994572 0.01675316 -0.0928488
-0.10196915 0.01483077 0.02768784
-0.03133045 -0.01976842 -0.04503377
0.10464877 0.02386427 0.00167798
0.09677272 0.01179677 -0.00395465
-0.04736415 0.09309896 -0.26406024
0.12964741 0.00069901 0.03721396
0.11576249 -0.02042931 -0.0607815
-0.02417715 -0.00168518 -0.16746518
0.06058771 -0.03591148 -0.20749349
-0.09404962 0.02411837 0.00854996
0.07957691 0.01841039 -0.15592367
-0.04255988 0.05552409 -0.29245795
0.21703101 0.01776567 -0.06436557
-0.07172719 -0.00591849 -0.22556029
-0.17591198 0.01427918 -0.0877911
0.04433402 -0.01535949 -0.26574379
0.01326227 -0.03536003 0.07371245
-0.0837981 0.00080208 -0.08419075
-0.14891681 -0.00712819 -0.26446006
-0.02977262 -0.01592831 0.04903364
-0.04110355 -0.03660519 -0.18531609
0.0018451 0.01668152 0.16862965
0.08545122 0.01537941 -0.14415525
-0.06829308 0.00289434 0.07349819
0.01072863 -0.03450397 0.04546539
0.10502025 0.01122627 -0.03538447
0.20315725 0.01688221 -0.08330077
0.05253489 -0.00539368 -0.06667106
-0.05653914 0.01689896 -0.08954796
0.01029665 0.03774381 0.13494922
0.02336319 0.00846657 -0.17630884
0.09452471 0.01319662 0.00570068
0.06674577 -0.01933958 0.03334281
-0.08398986 0.00953133 -0.07919423
0.11890414 0.01819933 -0.04529916
-0.00370019 0.04976402 0.24490883
-0.14193066 0.01774687 -0.06839853
-0.12368457 0.01673702 -0.00480087
0.01122857 -0.02233931 0.12171643
-0.26792973 0.01765683 -0.07549241
-0.00535491 -0.00102211 0.37292875
0.01862586 -0.02083322 0.01116156
-0.10349463 -0.00821920 -0.21139745
-0.04227876 0.01496511 -0.22424735
0.06496818 0.01728326 0.0972395
0.11834642 -0.01728500 -0.00027237
0.09547949 0.01457425 -0.03710946
-0.08090847 0.00129239 -0.15949194
-0.11358529 0.01900534 -0.03513457
0.02052942 0.00636436 0.19943243
0.05009662 -0.02730130 -0.24694055
0.09359928 -0.00709836 -0.13819263
0.0543004 -0.03774541 -0.0628659
0.06647904 0.04833603 -0.24375272
0.16972096 0.01350357 -0.05099955
0.08289638 0.00964037 -0.23108116
-0.07193977 -0.01162241 -0.1295415
-0.09520114 0.01821187 -0.05082603
0.10995772 -0.01536945 0.02596332
-0.0210635 -0.01399508 -0.2456373
-0.02101626 0.05093193 0.22154753
-0.03634805 0.01318270 -0.05579354
0.06465536 0.04456444 -0.26979465
-0.09065624 -0.00132842 -0.25175362
-0.02747786 0.01047545 0.34635836
0.02965742 0.02085419 0.01776447
-0.05391171 -0.01894758 -0.28840112
-0.03837277 0.00139765 0.09338712
0.10280457 0.01449287 -0.06958987
-0.03427199 0.00510314 -0.29144312
0.25777798 0.01699636 -0.08462107
0.16732922 0.01638985 -0.09081695
0.03235632 0.00723406 0.04128107
-0.13442194 0.00507985 -0.04675195
0.07719896 -0.02207687 -0.10877934
-0.03155609 -0.01590152 0.19705638
0.04068363 -0.03312984 -0.05422657
0.06316704 0.00818865 -0.25187753
-0.01924038 -0.01935871 0.17392671
0.01050689 -0.01607217 0.24774678
0.03639533 0.01580922 0.15134513
0.28530177 0.01514225 -0.09562908
-0.04760994 0.02984579 -0.20786375
-0.02308046 -0.03337567 0.04742988
0.09320196 0.01005288 -0.18621263
0.0117224 -0.02059812 0.00307154
-0.06793028 0.00019036 0.06405981
-0.15287826 0.01497419 -0.09977019
-0.03593441 0.01099969 0.18132068
0.15472414 -0.00405688 -0.29218087
-0.04377545 0.02347767 -0.19783709
0.09459991 -0.00849721 -0.19966985
0.0185787 -0.03373657 0.05458334
0.08878722 -0.00867154 -0.19451375
0.06391014 0.01765162 -0.27777972
-0.05651385 0.01742199 0.03106006
0.05971595 0.01624153 -0.05699376
-0.06352426 -0.02073013 -0.19712256
0.06887093 -0.00751458 0.01297139
-0.10211543 0.01284030 -0.00825575
0.01118106 -0.01019844 -0.19479306
-0.04791372 -0.03141278 -0.15776449
-0.02450563 0.02289086 0.31561266
-0.21829925 0.01381673 -0.08464836
0.00671784 0.00371631 -0.22716313
0.00126469 0.02705693 0.24668807
-0.06863273 -0.00052182 0.01660528
-0.05779906 0.01706243 0.07815839
0.01893973 -0.02528643 0.06961411
0.03401845 0.00024912 -0.02463928
-0.03300334 0.00962978 0.14942129
-0.02788111 -0.01446458 -0.27305359
-0.00114618 0.03481377 0.12478422
0.00886888 -0.02894301 0.07680937
-0.06567956 -0.00896639 -0.18456496
0.1139652 -0.02796885 -0.01071809
0.00212551 0.00539325 -0.20964769
0.1105856 0.00518614 -0.02354944
-0.0433414 0.07315768 -0.28189231
-0.04764176 0.02072974 -0.06484911
0.06613628 0.07675183 -0.23167934
0.10697503 0.01753017 -0.05950904
0.10946155 0.00070996 -0.00053421
0.07504716 -0.00771143 -0.05585787
-0.12954394 0.01324820 -0.05564815
-0.19075958 0.01432804 -0.03926676
-0.16082157 0.01619437 -0.10705683
0.00744844 -0.02924432 0.1106966
0.1126079 0.01670616 -0.07889958
-0.12975099 0.01470106 -0.08932102
0.00859252 -0.01933129 0.12061028
0.06695429 0.05494060 -0.27131025
-0.04161725 0.04231421 -0.27668189
-0.02595653 -0.01485641 -0.14496472
-0.01644629 0.01870940 -0.04508168
-0.03397622 -0.01845762 -0.0034867
-0.06297403 -0.02681869 -0.16936901
-0.01863627 -0.03364807 0.13165235
-0.05509729 -0.03448577 -0.01335688
0.06501802 0.04374974 -0.20842604
-0.04616093 0.04115809 -0.20071623
0.19596698 0.01610982 -0.09798557
-0.01592382 -0.02183936 0.24414227
-0.04435113 -0.03816307 -0.09994234
0.04309934 0.00128114 -0.24250951
0.01493811 0.01453421 -0.11259435
0.00094406 0.04670222 0.24391843
0.03844167 0.01595525 0.15259685
0.06431545 0.05004830 -0.2624972
-0.01748675 0.02266319 0.03082121
0.11702716 0.01434159 -0.06699304
-0.0587203 -0.00061703 -0.22339098
-0.06309252 0.01684044 0.15269022
0.03940044 0.02256447 -0.03749932
0.06821294 -0.03373010 -0.05624185
-0.03785074 0.00448339 0.26499598
0.06876012 -0.02937533 -0.26486071
0.12463667 -0.00331343 -0.27738641
0.06610403 0.01991552 -0.18845276
-0.06208358 0.01569199 -0.08593572
0.06601378 0.02134340 -0.04061228
0.08699839 0.00395054 -0.04059675
0.05396754 -0.03249680 -0.13389482
0.04905784 0.01330143 -0.19016048
-0.02298886 -0.02589579 0.04782477
-0.02879679 0.02253952 0.12304686
-0.05658201 0.01713403 0.05807276
0.07034769 0.09413682 -0.2940765
-0.07820547 -0.00540990 -0.28569542
-0.0086984 -0.02539800 0.32593227
0.05946066 0.02514221 -0.22202971
-0.01587513 0.04117756 0.11201741
-0.21816055 0.01631037 -0.11274181
0.01566173 0.01135809 0.26908522
-0.01991679 0.05117169 0.23396028
0.05915366 0.02043953 -0.2042398
0.0508728 0.00992816 -0.25119885
-0.08393817 0.00397225 -0.06615767
-0.04084022 -0.00153419 -0.27565425
-0.06804301 0.00232371 0.02856113
0.06220704 0.02346527 -0.18333736
0.09406708 -0.00170527 -0.24833966
0.10563917 0.01491814 -0.01396952
0.11290588 -0.01049104 -0.0421656
0.04004745 0.02131225 -0.01826882
-0.0831697 -0.00797027 -0.07573978
-0.10360228 0.00469943 -0.03744682
-0.01768737 0.00360614 -0.22935877
0.01877872 -0.00314205 -0.25753784
-0.12538867 -0.00178398 -0.23823263
-0.00912667 -0.02105977 0.19705483
0.04180831 -0.00072227 -0.22461206
-0.0842787 0.01602234 -0.06937791
0.06056263 -0.03540519 -0.19439337
0.12024695 -0.00819843 -0.19840483
-0.03309661 -0.00961165 0.00583549
0.10727867 0.00281417 0.00116431
-0.04069847 0.02754245 -0.25004782
0.09729027 0.01262154 -0.02633684
0.13388199 -0.00208977 -0.03950227
-0.04369619 0.07896752 -0.27843703
-0.02896498 0.00157832 -0.06324025
0.04188363 0.02285532 -0.05083676
0.13215064 0.00046300 -0.01276518
-0.02381884 0.04489919 0.18964057
0.06785137 0.01184323 -0.17855202
-0.01142531 0.02718199 0.19472965
0.27590081 0.01602283 -0.10455484
0.00881071 -0.03195421 0.07819722
0.08112522 0.01844781 -0.15242879
-0.05177066 0.01749955 0.00236632
0.03629533 -0.01637055 -0.1256622
0.26748966 0.01495958 -0.04487661
-0.01360204 0.01496193 0.16172341
-0.02837409 -0.02353831 -0.11755265
-0.17774728 0.01815465 -0.03833698
-0.02221033 -0.02281988 0.04262076
-0.16654485 0.01470183 -0.0256758
0.05993273 -0.03128380 -0.19874733
-0.01968232 -0.02095546 0.1152309
0.01641247 -0.02183052 0.01288244
0.05959285 0.01595335 -0.10544179
0.07819804 -0.00297005 -0.27926254
0.05405144 0.02364915 0.01269824
0.08472522 0.01981239 -0.00021077
0.15215214 -0.00563989 -0.21938377
0.1625564 0.01387733 -0.01385519
-0.08464057 0.01839841 -0.04498184
0.09844095 -0.00830095 -0.21945313
-0.25144115 0.01825817 -0.07734879
0.11632004 -0.01813558 -0.06689874
0.03286926 -0.01298091 -0.05077019
-0.04872814 -0.03789357 -0.07920688
0.06983817 0.01009605 0.066294
0.25110068 0.01704914 -0.08319167
-0.00562082 0.01134300 0.20798487
0.00864265 0.04346194 0.18330945
0.08022689 0.01687862 0.02002069
0.02120777 -0.00871693 0.10548317
0.06667903 0.01564332 0.10973193
-0.07122811 -0.00088854 -0.23767483
0.16589071 0.01351889 -0.05111912
-0.09878051 0.00931018 -0.04210697
-0.21619259 0.01825260 -0.05621178
0.05803341 -0.04819222 -0.14701469
0.1688932 -0.00626275 -0.2900115
0.06206693 0.04892396 -0.23715109
0.129985 0.01715162 -0.07031879
0.15120076 0.01815568 -0.04930595
0.14681928 -0.00258983 -0.2583961
-0.06860611 -0.00501738 0.05217376
0.0883295 0.01540695 -0.08965155
-0.04130986 0.03811346 -0.250016
0.07218922 0.00207432 -0.27415997
0.06345281 0.01628533 0.13464758
-0.01358631 0.02286355 0.24619868
-0.10216067 0.02356938 -0.0184281
0.18041168 0.01650149 -0.08945822
0.09230419 0.00121688 -0.2081334
0.06446045 0.02367610 -0.24303884
0.17291216 0.01726858 -0.01601521
0.03304428 0.02120674 0.00897885
-0.16923613 0.01894108 -0.04660195
-0.11391826 -0.00448360 -0.03831986
-0.03345354 0.02488789 0.20232419
-0.01926466 0.05385860 0.1972556
-0.06270249 -0.02498920 -0.16134391
0.05409419 0.01633409 -0.08998172
-0.05480075 0.01694423 0.06949757
0.10542945 0.01916830 -0.02185572
-0.08873949 -0.00834667 -0.23613671
0.04653769 0.02015167 -0.05654327
-0.11047389 -0.00527776 -0.00953133
0.17791116 0.01895513 -0.03348194
0.01434673 -0.01822264 -0.1061523
0.09874908 0.01677936 -0.01869927
0.00410039 -0.02096800 0.13110124
-0.04477204 0.10315122 -0.31031615
-0.08175276 0.01357226 -0.00194528
0.01688193 -0.01376719 0.19037759
-0.03677249 0.01376288 -0.06401903
-0.15495851 0.01442565 -0.08744326
-0.02945998 -0.02794145 -0.22786465
-0.02730361 -0.02175334 0.05186341
-0.13631669 0.01622554 -0.10276085
-0.0413842 0.03959970 -0.28824159
-0.1123769 0.01880498 -0.03959426
-0.1317471 -0.00494084 -0.0602452
-0.03944589 0.01366553 -0.25130103
-0.03816721 -0.00225863 0.08396006
0.18468454 0.01840169 -0.04679137
0.01550886 -0.00862560 0.23434913
-0.10329273 0.01521061 -0.03856018
-0.04392425 -0.04307632 -0.15691753
-0.29625249 0.01550803 -0.13150738
-0.07832221 0.01395667 0.03790521
0.00068875 -0.00629034 0.35372235
0.11323486 0.01960426 -0.01258956
-0.02657299 -0.01843988 0.16120728
-0.01873289 0.02951003 0.18405207
0.01500119 0.02627189 0.2223607
-0.04121308 0.03776171 -0.22369954
0.06771732 0.06389849 -0.25611566
-0.0189055 0.01870895 0.2182065
-0.04536323 -0.05021152 -0.14483049
-0.09357391 -0.00129369 -0.24564353
0.00067732 0.00274800 -0.23764001
0.05729452 0.01697905 -0.20216147
0.17253838 0.01323141 -0.04492148
0.06497576 0.02886289 -0.21298119
0.00746746 -0.01664846 0.26713322
-0.24495765 0.01431219 -0.10070206
-0.04639732 0.08156098 -0.24257238
-0.00122049 0.05538098 0.17171687
-0.03949796 0.00810083 -0.22416957
-0.01381568 -0.02472770 0.05324438
0.03683106 -0.00988372 -0.15984308
0.06544213 0.01432296 -0.24180614
-0.00019466 0.01134300 0.18648647
0.01291651 -0.01626779 0.21673881
0.05573394 -0.02965198 0.03419654
-0.05207965 -0.03747679 -0.12048301
-0.02674038 -0.03138432 0.14697412
0.02826784 -0.01014759 -0.19464045
0.00654063 -0.01992075 -0.08550656
-0.14396624 -0.00726239 -0.27370319
-0.05717212 -0.02071119 -0.27380476
-0.08652243 0.01301462 -0.04254562
-0.00014999 0.03004640 0.01762359
-0.04704857 0.03121373 -0.21641906
0.10114874 -0.00123395 -0.20909012
0.26121801 0.01335494 -0.05791453
0.0386757 0.01630355 0.06536427
-0.07684179 0.01380646 -0.15728274
-0.01822789 0.03753550 0.25198732
0.03226882 0.01004832 -0.1592297
-0.04401929 0.01686238 -0.10855862
-0.01990378 -0.03167299 0.03262754
-0.00249536 -0.02092229 0.09482233
-0.05679589 -0.00091250 -0.23797752
-0.07063314 -0.00353180 0.01066364
-0.0805651 0.00631075 -0.16514281
0.01708883 0.02524337 0.10729953
0.01593844 0.02138175 0.02557412
0.03031652 -0.00814789 0.07841175
0.00977665 -0.02824260 0.16631474
-0.08167027 0.01354342 0.00378219
-0.01313974 -0.02085609 0.05272987
0.05452271 -0.03445392 -0.00599698
-0.0439686 0.03324532 -0.25410513
0.08196092 -0.01285833 -0.19982922
-0.10796133 0.01748652 -0.06946428
0.01691112 -0.00239233 0.2240363
-0.02176111 0.01968690 -0.02804642
-0.07288549 0.00463888 -0.22303145
0.09297765 0.01500209 -0.08065822
0.00195243 0.03361438 0.26800779
0.094368 -0.00115018 -0.22708329
0.0922255 -0.00362664 -0.21005118
-0.04544038 0.01920899 0.11792556
0.00480943 -0.01925568 -0.09515693
-0.0616853 -0.03489196 -0.07386209
-0.0986812 -0.00121345 -0.21005517
0.10592102 0.01352297 -0.04755464
-0.02588388 0.04068743 0.22506151
0.05025107 0.02057355 -0.04328786
-0.30038987 0.01446094 -0.11168889
0.11225761 -0.00792642 -0.22365873
0.0636163 0.01652231 0.13996565
0.00332657 0.02648438 0.16206455
-0.04454963 0.02338142 -0.23761629
-0.14640361 -0.00229943 -0.27473686
-0.04514359 0.08795947 -0.25667037
-0.17982369 0.01558286 -0.11598363
-0.02452023 0.02085849 0.06949424
0.1671206 0.01738269 -0.06848632
0.08954818 0.01183206 -0.00775341
-0.07457747 -0.01067302 -0.14190492
-0.11500727 -0.01397002 -0.01236442
-0.18465812 0.01569370 -0.11885058
0.05377552 -0.03200440 -0.13280827
-0.04357163 0.01737225 -0.13136443
0.06082276 0.02718470 -0.17648862
-0.02683928 0.03309686 0.25043912
0.07654093 -0.01801348 -0.07119412
-0.2010717 0.01271658 -0.05610463
0.0177227 -0.03346093 0.08315815
-0.10644954 0.01519053 -0.02123
-0.09601592 0.01595550 0.00391372
-0.02624203 -0.01990234 -0.08928431
0.05199417 0.01343164 -0.14172213
0.09085318 0.01990488 -0.01613417
-0.01920822 0.03061531 0.18845473
-0.07540956 0.01243068 0.05286373
0.03284057 -0.01230563 -0.03805242
-0.07591859 0.01412872 -0.12958561
0.08082377 -0.02157726 -0.23561873
-0.0173767 -0.01894353 -0.09952942
0.057114 0.00925278 0.13101924
-0.0349936 0.01375943 -0.10365235
0.06502698 0.07175525 -0.23033295
-0.12301418 -0.00751152 -0.26889826
-0.02074327 0.01406295 0.34968147
-0.04166547 0.04414011 -0.2849498
-0.02283896 -0.02089335 0.17709097
-0.11631526 -0.01877050 0.00418808
0.06637307 0.01078762 -0.14527571
0.04409565 0.00094187 -0.259266
0.03305132 0.00068105 -0.25726537
-0.15774238 0.01372373 -0.07169114
0.20378089 0.01303504 -0.04449706
-0.05484926 0.01810888 -0.13571537
0.05046106 -0.03647419 -0.1323068
-0.05333332 0.02016384 0.10864475
0.0108849 -0.02091756 0.09302314
0.07937016 0.02385151 0.04559238
-0.01010947 0.02809945 0.16466518
0.00915961 -0.03125577 0.06987367
-0.01977036 0.00064470 -0.25971389
0.04416157 -0.03500563 -0.01939116
-0.12989346 -0.00245692 -0.28141695
-0.03511501 0.01123321 0.17240535
-0.05163615 0.01748062 -0.00147991
-0.01385929 0.01134300 0.2399768
-0.01712711 -0.03383574 0.0878692
0.30790474 0.01573659 -0.05554862
0.0759931 -0.02156399 -0.07301196
-0.0550839 -0.01363656 -0.27419495
-0.06800494 0.01517912 -0.10868522
0.01115147 -0.01945126 -0.09273388
-0.01346561 0.01277597 -0.1323504
-0.04427422 0.01690679 -0.0041261
-0.04973724 0.00158734 -0.28008722
0.00953211 -0.02074370 0.02192199
-0.0334383 0.01340114 -0.14194238
-0.0531349 -0.02846006 0.04170346
-0.09993767 0.01950752 -0.02152391
-0.00735803 -0.02054129 -0.00514098
-0.0829785 0.00063272 -0.10554677
0.00860149 0.03448603 0.23417761
-0.10663233 0.01644484 -0.04011681
0.0113678 0.02430883 0.26456806
-0.08187952 0.00148646 -0.13419167
0.0612817 0.03538152 -0.23665513
0.01154013 0.03346128 0.10743225
0.03461954 0.01972782 -0.05242905
0.34489094 0.01568268 -0.1069022
0.05751118 0.02366896 0.06842912
-0.04423053 0.05728192 -0.27500142
0.14934387 0.01326539 -0.01309821
-0.11149446 -0.00801364 -0.22723575
-0.13758753 -0.00209643 -0.26230604
-0.00743873 0.01597684 0.21589743
-0.14939162 0.01323930 -0.05897627
0.06205861 0.02239180 -0.25361583
0.0030126 -0.00629580 -0.23817457
-0.01910687 0.03436912 0.13099535
-0.02966411 -0.00949518 0.34345301
-0.16661227 0.01418037 -0.08384438
0.06571851 0.06640082 -0.26853842
0.03652806 -0.01798333 -0.10786288
-0.13503307 -0.00312597 -0.24021991
-0.0901989 0.01391732 0.01155454
0.07616233 -0.02700021 -0.10364331
0.00621132 -0.01468827 0.30057366
0.15861372 -0.00538520 -0.29044006
-0.05254154 0.00012092 -0.2812305
-0.01770182 -0.02084861 0.0479083
0.08723734 0.01759486 0.01293356
-0.09082229 0.01424999 -0.02211097
-0.02505537 -0.02091295 -0.28344095
0.03731099 -0.02552665 -0.08643195
-0.04379466 0.00843743 -0.16086571
-0.00370854 0.03107125 0.19445462
-0.0688987 -0.01254945 0.02959797
-0.08137361 0.00316369 -0.14737646
-0.00495628 0.03396390 0.16273511
0.14055672 0.01903775 -0.02811456
0.01660814 -0.02980127 0.13290607
-0.04021444 0.02175809 -0.19859959
-0.04266022 0.01628936 0.05724137
0.09745231 0.01424856 0.00425827
-0.01568745 0.01367048 0.16964036
-0.0219945 -0.01272115 -0.19549034
-0.03720183 0.01073959 0.21730893
-0.0363629 0.01819076 0.23732236
-0.02825865 0.01360293 0.33704902
0.01972131 0.01265875 0.15723556
0.01797098 0.01946136 0.04982301
-0.06977743 -0.02312783 -0.03550418
-0.02138306 -0.02624849 0.01791577
-0.01368087 0.03847185 0.09049086
0.06846223 -0.01970830 0.01691862
-0.02888468 0.03412193 0.19064228
-0.10031338 0.01450724 0.01676734
-0.06288705 -0.03291037 -0.08554598
0.09654976 0.01357200 -0.00037553
0.08275301 0.02366268 0.05991698
0.06098423 -0.03402014 -0.21516051
0.09362949 0.01225259 -0.16284582
-0.1088368 -0.00870467 -0.0485918
-0.01264199 -0.03038950 0.3256417
-0.03659469 -0.00382241 0.3139932
0.02198814 -0.00940372 -0.20310872
