# .PCD v0.7 - Point Cloud Data file format
VERSION 0.7
FIELDS x y z
SIZE 4 4 4
TYPE F F F
COUNT 1 1 1
WIDTH 1423
HEIGHT 1
VIEWPOINT 0 0 0 1 0 0 0
POINTS 1423
DATA ascii
0.15365662 0.16570801 -0.11072493
0.23862 -0.27011352 -0.21231598
-0.13953682 -0.05579278 -0.23862
0.01086077 0.25519100 -0.08280416
-0.19963613 0.01228394 0.178965
-0.11128021 0.19553600 -0.09185772
-0.22168368 0.25519100 -0.2555096
0.08003469 0.16570801 -0.03431185
0.21265322 0.19553600 0.14039835
-0.10181902 -0.07291200 0.08535966
0.23862 -0.26594441 -0.20202065
0.24867043 0.19553600 0.03005124
-0.20696447 -0.20656808 0.178965
0.21921999 -0.04308400 0.14141176
0.07163357 0.25519100 -0.18087725
-0.18650097 -0.04662174 0.23862
0.18550548 -0.08892355 0.178965
0.21746162 -0.02844143 -0.178965
-0.02578009 0.21271356 0.29827499
-0.03364164 0.25519100 -0.19968646
-0.09931913 -0.07291200 0.14031775
-0.18656627 0.25519100 0.19493141
-0.20896295 0.19553600 -0.10870249
0.11679385 -0.07291200 -0.10248811
0.13480985 0.19553600 -0.13407147
-0.112514 -0.04308400 -0.05468652
0.29827499 0.19955275 -0.1799575
0.17424229 0.25519100 -0.08651163
0.00271608 -0.04308400 -0.06861347
-0.27703702 0.25519100 -0.25231708
-0.17433865 0.19638543 -0.29827499
-0.20199412 0.17718860 -0.26844701
0.29521211 0.19553600 -0.1854179
-0.19646424 -0.07291200 0.06771052
-0.01843504 0.25519100 -0.23289349
-0.11690907 0.25519100 0.27020073
0.23152338 0.19553600 0.24011387
-0.14900429 0.25519100 0.19305282
0.23680685 -0.13682207 0.178965
0.2315619 0.25519100 0.0700834
-0.14521402 -0.04308400 -0.14073757
-0.06397898 0.19553600 -0.12391395
-0.26844701 0.17489260 -0.11653575
-0.21494271 0.16570801 0.26430734
-0.11267327 0.25519100 -0.13482199
-0.1579598 0.25519100 0.03954612
0.22795498 -0.28170401 -0.20122762
-0.02185634 0.25519100 -0.22832861
-0.29827499 0.24813753 0.2366741
0.16068389 -0.07291200 -0.13422088
0.1772736 -0.04308400 0.04465858
-0.02313821 0.25519100 0.16082109
-0.26639587 0.25519100 -0.00065415
0.11377791 0.19553600 0.2749585
-0.17224023 -0.04308400 0.1990266
0.20699698 0.16570801 0.11066281
0.16087721 0.25519100 0.24003018
0.23862 -0.27616385 0.22877776
0.1798123 0.25519100 0.20804094
-0.21902036 0.25519100 0.011262
0.20899422 -0.09865961 -0.178965
0.21367347 -0.07291200 -0.15606025
-0.178965 -0.11781796 -0.17993923
0.21922299 0.25519100 0.14454357
0.23975454 0.19553600 -0.25689366
0.22155007 0.13502857 -0.23862
-0.17477473 -0.04308400 0.12081169
0.07660022 0.19553600 0.27421618
0.00375703 -0.07291200 0.04299796
-0.01832796 -0.07291200 -0.13455651
-0.10971807 -0.04308400 0.11478738
0.04990437 0.18891647 -0.26844701
0.27406999 0.25519100 -0.27889218
0.23862 0.02928910 -0.22902929
0.19800488 0.22336080 -0.29827499
0.178965 -0.13570234 -0.18165525
-0.26844701 0.16929802 -0.09397216
-0.16647794 0.25519100 -0.04391361
0.15025316 0.16570801 -0.01312617
0.02696395 0.16570801 -0.21445479
0.05331976 0.16570801 -0.04300367
-0.0036714 -0.07291200 -0.2185877
0.20125095 -0.18287055 0.178965
0.04122956 0.23586516 -0.29827499
-0.1380418 0.23440814 0.29827499
-0.26924567 0.19553600 -0.1100631
-0.14661532 -0.04308400 -0.18294178
-0.29827499 0.20402445 -0.1761118
-0.21209779 -0.21368047 0.178965
-0.23583749 0.06760272 -0.178965
-0.19899631 -0.04308400 -0.07520266
-0.06338124 -0.04308400 -0.00904722
-0.18677785 0.19553600 0.00278052
-0.05288824 -0.04308400 -0.0783711
-0.23862 -0.03482007 0.22910047
0.1168721 0.19130850 0.26844701
0.04546726 -0.07291200 0.11031737
-0.26844701 0.17792051 -0.0223776
0.22192154 0.16570801 -0.06213827
0.20376267 0.25519100 -0.2606366
-0.23862 -0.16564600 -0.20300232
-0.18086882 -0.28170401 0.19010455
-0.23862 -0.27763812 0.20537056
0.04942582 0.16570801 0.19585756
-0.09558957 -0.07291200 -0.10154892
0.17450389 -0.04308400 -0.23745176
-0.178965 -0.13730207 -0.18805718
-0.2025946 -0.07291200 -0.09523799
0.05810997 -0.04308400 -0.13590745
-0.05482632 0.25519100 0.1388324
0.0100128 0.25519100 0.17792672
-0.26019557 0.16570801 0.16284764
-0.19451488 0.09995118 0.178965
0.03065931 0.25519100 0.09460999
-0.13640231 0.19553600 0.06559268
-0.23862 -0.17505296 0.19383919
0.06676097 0.16570801 0.09032691
-0.02286127 -0.07291200 -0.17481993
-0.11278399 0.19553600 -0.23866778
0.25916624 0.25519100 0.26933647
-0.19585586 0.19553600 0.22388758
-0.13522915 0.19553600 0.07831853
0.06948258 0.16570801 -0.00735691
0.22348399 -0.09372948 0.178965
-0.01300555 0.16570801 0.03201113
0.29827499 0.24987130 0.15316821
-0.09685799 0.25519100 -0.14309694
0.22245933 -0.04308400 0.16144905
0.15902946 0.19553600 0.04799278
-0.2706226 0.25519100 0.12313301
0.23353851 0.16570801 -0.17684857
-0.07205705 -0.07291200 0.19592941
-0.26166399 0.16570801 -0.03343229
0.23675997 -0.14215860 -0.23862
0.06486767 -0.04308400 -0.23408539
-0.07643943 0.16570801 0.17593294
0.17847667 0.16570801 0.23369548
-0.29827499 0.24232882 0.25997379
0.10419221 0.16570801 0.07644468
-0.178965 -0.24771903 0.2314738
0.10257581 0.16570801 0.11247593
0.20559581 0.19553600 -0.18151279
0.15284904 -0.04308400 0.1747082
0.12827896 0.19553600 -0.29762056
0.10252361 0.25519100 -0.0340053
0.0430197 -0.04308400 0.15062801
0.178965 -0.26028021 0.23075088
-0.23862 -0.10738669 0.20546791
0.0508939 0.25519100 -0.05797313
-0.23862 -0.06746986 -0.04977212
0.18871074 0.06169329 -0.178965
0.03567531 -0.04308400 -0.12711864
-0.15164405 0.17117098 0.26844701
-0.29827499 0.21198046 0.25714035
0.25971261 0.19553600 -0.07691444
-0.2546904 0.19553600 -0.13846421
0.16481072 0.25519100 0.2840632
-0.14317646 0.16570801 -0.1822192
-0.14205241 0.19553600 -0.1171893
-0.27036639 0.19553600 0.22965327
-0.23862 -0.13342168 -0.19498972
-0.11287451 -0.04308400 0.15420366
-0.071409 0.16570801 0.01166902
-0.07152101 0.25519100 -0.1439189
0.21243678 -0.17935563 -0.23862
-0.29827499 0.21922506 -0.10099489
-0.13391692 0.25519100 -0.16725702
0.19674818 -0.04308400 0.14066928
0.1019564 0.19553600 0.21060379
0.1798136 0.16570801 0.17271688
0.19718055 -0.13038438 -0.178965
0.09083848 0.16570801 -0.08158893
-0.18339447 -0.07291200 0.12010495
0.14826659 0.25519100 0.13790544
-0.07670013 0.16570801 0.05603322
-0.23862 -0.05101548 0.13959103
0.11347183 0.19553600 0.17410979
-0.23352515 0.16570801 0.08136757
0.23862 -0.13847252 0.21932083
-0.04538588 0.16570801 0.18514212
-0.20725232 -0.07291200 0.13451053
0.13210284 -0.04941165 0.23862
-0.22979485 -0.25659662 0.178965
-0.22266033 -0.04308400 0.12044929
0.29827499 0.20629095 0.28872992
-0.26160344 0.19553600 -0.10449329
-0.27818807 0.19553600 0.15943489
0.10891527 0.16570801 -0.04840887
0.21707109 0.25519100 0.06040138
0.04840603 -0.04308400 -0.16376102
-0.17339689 0.25519100 0.16818632
0.06842132 -0.04308400 0.20313221
0.03332518 0.16570801 -0.1508172
0.22626902 0.25519100 -0.0418979
0.20638422 -0.05973948 0.23862
-0.21551164 -0.15286294 0.23862
0.07229509 -0.07291200 -0.108243
-0.19634078 -0.04308400 0.01478058
-0.10325488 0.19553600 0.20362878
-0.01272175 0.16570801 -0.20597789
0.04304642 0.25519100 0.20441371
0.03316953 0.19553600 0.03770319
0.2373156 -0.01089387 -0.23862
-0.06737716 -0.07291200 0.06491712
-0.217506 0.02218368 -0.178965
0.04504019 0.16570801 -0.20870147
-0.29827499 0.21708250 -0.11001578
0.08948659 0.16570801 -0.23166936
-0.12416046 0.16570801 -0.15549273
0.26634657 0.19699952 -0.29827499
-0.11211199 -0.04308400 0.1807145
0.23862 -0.16318477 0.23817854
-0.18915341 -0.07291200 -0.12643032
0.01122942 -0.07291200 0.09944955
0.11388449 0.19553600 0.10793215
0.03731467 -0.04308400 0.07285014
0.22200406 -0.07291200 0.17337505
-0.02559649 0.19553600 0.01837392
0.01809904 0.19553600 -0.25957984
-0.24174074 0.16570801 0.05597738
-0.23862 -0.03325186 0.19201739
0.25844135 0.25519100 0.0511545
0.23497929 0.19553600 0.11274581
-0.01264373 0.16570801 0.17381503
-0.01371572 0.19553600 0.26571475
0.07642084 0.16570801 0.01546018
-0.10161403 0.25519100 -0.25436778
-0.23862 -0.09302856 -0.23396693
-0.12718615 -0.04308400 -0.11613063
0.02073644 0.16570801 0.02785341
0.06343903 -0.07291200 0.09560237
-0.26844701 0.19264268 -0.03504299
0.0763709 0.25519100 0.18079618
0.26778963 0.19553600 -0.23016425
0.29827499 0.25239175 0.05552571
0.23862 -0.27891216 -0.2170954
0.2119769 0.25519100 -0.19556527
-0.16832697 -0.07291200 -0.12814603
0.12790633 0.19553600 0.11125834
0.23046967 0.25519100 0.25670185
-0.23862 -0.04955127 -0.22582959
0.21139707 0.16570801 -0.22930305
0.2244372 -0.07291200 -0.02110613
-0.14415752 0.25519100 0.06121089
0.15807581 -0.07291200 -0.00490627
-0.09772442 -0.07291200 -0.16660447
0.03154604 0.16570801 -0.14514663
-0.26844701 0.16753181 0.05157056
-0.23862 -0.04706750 0.03820319
-0.19098765 0.08104475 -0.178965
-0.20330016 -0.10834564 -0.23862
-0.04566784 -0.05837051 -0.23862
0.17506168 0.25519100 0.00116945
-0.27492365 0.19553600 -0.21664054
0.2430961 0.19553600 0.19308198
0.2219477 0.10268552 -0.178965
-0.04114375 0.19553600 0.07774038
-0.29827499 0.20380022 0.06985946
-0.2554751 0.25519100 0.25522867
-0.1971475 -0.19200593 0.23862
0.14938878 -0.04308400 0.11387856
0.178965 -0.09899111 -0.20936113
0.21660036 0.19553600 -0.20143795
-0.23862 -0.05442392 0.08962087
0.15778078 -0.07291200 -0.18862038
-0.25644995 0.16570801 0.17308838
0.11811825 -0.04308400 0.16967965
0.178965 -0.07271771 0.18697774
-0.27366281 0.25519100 0.17593962
-0.22001636 0.19553600 -0.27357815
0.00816984 -0.04308400 -0.22290654
-0.08123329 -0.04308400 -0.10395983
0.23862 -0.13992988 0.20496795
-0.19703078 0.25519100 0.10408686
-0.23301709 -0.04308400 -0.07197626
0.1834054 0.10539021 -0.23862
0.13975119 -0.04308400 0.21875818
0.27036634 0.19553600 0.06208065
0.06324669 0.16570801 -0.072133
0.01622184 -0.04308400 -0.09913576
0.21744322 -0.05961967 -0.178965
-0.07597024 0.16570801 0.11636706
0.22591705 -0.07291200 0.04782308
-0.06129259 0.16570801 -0.09375245
-0.04934089 -0.07291200 -0.0346824
0.19397227 0.16570801 0.09870146
-0.19896402 -0.06343266 -0.178965
-0.11141968 0.25519100 -0.12727777
-0.11196413 -0.04308400 0.09286345
0.15473496 0.16570801 -0.25837263
0.21032272 0.16570801 -0.17702585
-0.15316126 0.19553600 -0.19557921
-0.19494431 0.16570801 0.08824237
0.14606296 0.19553600 -0.00435007
-0.04701396 0.21110730 -0.29827499
0.26844701 0.18164172 0.15461346
-0.21549532 0.16570801 -0.25623988
-0.21930956 -0.21989165 0.23862
-0.05640935 -0.04308400 -0.03603809
0.26184445 0.16570801 -0.00663583
0.10007838 0.19553600 -0.22946207
0.01287088 0.16570801 -0.22360886
-0.17932764 0.11459701 -0.23862
0.23862 0.05454430 -0.22212918
0.15711768 -0.04308400 0.10027461
0.18981116 0.19553600 0.11914957
-0.11908715 0.25519100 0.23870499
0.1688331 0.19553600 -0.24749935
0.09251552 0.16570801 0.17417805
-0.16941439 0.23593058 -0.29827499
0.14298068 -0.04308400 0.04454351
0.13421258 0.18861939 -0.26844701
0.156519 0.25519100 -0.00796148
-0.224088 0.25519100 -0.06392321
-0.06345901 0.19553600 0.15377531
0.02051207 0.25519100 -0.10076533
-0.14483581 -0.07291200 -0.15248289
-0.11924029 0.16570801 -0.23646871
-0.178965 -0.18685518 0.22219711
0.14895353 0.25519100 -0.10957427
-0.11487485 0.16570801 0.11485781
-0.23050153 0.09847206 0.23862
-0.26844701 0.18910934 0.17860621
0.178965 -0.23987365 -0.19366025
-0.11687057 0.16570801 0.10185118
-0.0537511 0.25519100 -0.00263921
0.16374403 0.25519100 0.10432475
-0.05106593 0.16570801 0.14500086
-0.23317611 -0.18386596 -0.23862
0.25361915 0.19553600 0.19885317
-0.03903362 0.19553600 0.22625625
0.09103666 -0.04308400 0.01957889
-0.05685061 0.19553600 -0.23151131
-0.11449741 0.19553600 -0.04420043
-0.178965 0.03219943 0.19870764
0.10078499 0.25519100 -0.10181129
-0.13667584 0.25519100 0.1268446
0.06995754 0.25519100 0.16684837
0.29461711 0.19553600 0.18919195
0.1990295 -0.28170401 -0.19558035
-0.00492018 0.25519100 -0.19592244
-0.15115999 0.19553600 0.09145257
0.08688575 0.16570801 -0.05114819
-0.00183018 0.16570801 -0.0432649
-0.2088839 -0.08765757 -0.178965
0.2017767 0.16570801 -0.26808062
-0.02706848 -0.07291200 -0.05200969
0.14491046 0.16570801 -0.19909509
-0.23862 0.00374913 0.23408331
-0.26600025 0.25519100 -0.23187003
-0.12413533 0.25519100 0.0502803
0.29827499 0.24353552 -0.23355836
-0.23168925 0.25519100 -0.0944898
0.20251539 0.15616002 0.178965
-0.15177132 0.25519100 0.2449512
-0.20841787 0.25519100 -0.0618796
-0.29827499 0.19597071 -0.26355225
-0.23862 -0.06059871 0.01213854
0.24783277 0.16570801 0.26094136
-0.29827499 0.22875410 -0.17889952
0.13887794 -0.07291200 0.01519764
-0.18162594 -0.04308400 -0.17272015
0.12725131 -0.07291200 -0.01218082
-0.21730212 0.02276026 0.178965
-0.07375642 0.19553600 0.00275875
0.01540169 0.19553600 -0.10688008
-0.10171082 0.22549121 0.29827499
-0.01515929 0.19553600 0.27466493
0.0597699 0.16570801 0.07785361
-0.26844701 0.17543310 -0.00975996
0.178965 0.09988974 -0.20708907
0.23862 0.07843105 -0.1809343
0.05755942 -0.04308400 0.17048383
0.2158693 -0.09628180 0.23862
0.21737147 -0.04308400 0.03120135
0.16447736 0.16570801 -0.04640677
0.29827499 0.22588068 0.22789834
-0.07060386 0.25326308 0.29827499
0.18842155 -0.04308400 0.02457676
-0.19926645 0.19553600 0.07358447
0.17877768 -0.07291200 -0.08821446
-0.07959019 0.16570801 -0.11076251
0.10405512 -0.07291200 -0.19300873
0.09837119 0.19553600 -0.25845593
-0.24771881 0.19553600 0.00931999
0.178965 -0.26638044 0.2261136
-0.13615694 -0.07291200 -0.20211097
-0.13969375 -0.07291200 0.0362673
-0.20549086 0.03559455 -0.178965
-0.16511138 0.19553600 -0.23273538
-0.24565795 0.16570801 -0.00127452
0.14134339 0.16570801 0.12861309
-0.06810619 -0.04308400 0.11480924
-0.21099782 -0.04308400 -0.07674851
-0.21106086 0.01435419 0.178965
-0.08079051 0.16570801 -0.12876891
0.22246264 -0.04485518 -0.178965
-0.251848 0.19553600 0.18824389
0.178965 0.01283956 0.18147636
0.02214813 0.19553600 -0.13970066
-0.13922373 -0.05570119 0.23862
-0.03205678 -0.04308400 0.12458075
0.29759742 0.22301617 0.29827499
-0.02203475 0.18928711 0.26844701
0.20971245 -0.28170401 -0.19625302
0.29827499 0.24594482 -0.18128221
-0.03104629 -0.07291200 -0.00876721
-0.2537278 0.25519100 0.12156651
-0.28321149 0.19553600 0.1055165
-0.23862 0.08929503 0.18741863
0.178965 0.02323598 -0.21762777
0.23862 -0.05397498 -0.20900203
0.18925555 0.10894332 -0.23862
0.12512168 -0.04308400 0.17917174
-0.07754529 0.18310013 -0.26844701
-0.26033539 0.19553600 -0.04322759
-0.16470354 0.25519100 -0.15215091
-0.28594374 0.19553600 -0.2573951
-0.07921693 0.25519100 -0.19095633
0.29827499 0.21050756 0.17964925
0.20176307 -0.27780809 0.23862
-0.2236718 -0.09241467 -0.23862
0.24781275 0.25519100 -0.14797302
-0.21223137 -0.10531958 -0.178965
-0.09168093 -0.04308400 -0.16633672
0.16176127 0.25519100 0.1675384
-0.13416941 -0.04308400 -0.18373012
0.12275211 -0.04308400 0.16593809
0.16494983 -0.04308400 0.23665559
-0.23190099 -0.28170401 0.19518004
-0.17260157 0.19553600 -0.29660065
-0.23813132 0.25519100 -0.20949835
0.23862 -0.27944273 0.19561126
-0.178965 -0.18535204 -0.2259003
0.25304943 0.16570801 0.04945121
0.09294227 0.19553600 -0.16038598
0.29827499 0.25206540 -0.20816542
-0.09430591 -0.07291200 -0.06276207
0.19606837 -0.04308400 -0.07862057
-0.21376965 -0.01319791 -0.23862
-0.19705914 0.25519100 0.18496381
-0.04126309 0.19553600 0.25523078
-0.09496598 0.25519100 -0.10232596
0.10925315 0.25519100 0.21249114
-0.29827499 0.22552235 0.14178697
0.20218595 0.25519100 -0.20358297
-0.1682857 0.19553600 0.08459217
-0.07047399 0.16570801 0.03020437
0.08619321 0.25519100 -0.28785369
-0.29827499 0.24993700 -0.17772799
-0.13649918 0.19553600 0.06220852
-0.12021147 0.19553600 -0.03324915
-0.02178147 0.19553600 0.25196267
0.22263242 0.25519100 -0.18626588
0.01257043 0.25519100 0.01319857
0.08359921 0.16570801 0.10736476
0.19664025 0.16570801 0.09491375
-0.17480195 0.19553600 0.07145971
0.00922776 0.19553600 0.17635087
-0.19275341 -0.09313827 -0.178965
-0.0190937 -0.04308400 0.11443682
0.20188222 0.25519100 -0.23409199
-0.29827499 0.23807952 0.00240145
0.0921296 -0.04308400 -0.11258524
0.23862 -0.06988424 0.18659429
0.178965 -0.19362719 -0.2179954
-0.20228765 0.04608848 -0.23862
-0.10140797 0.16570801 -0.20708382
0.23862 -0.19400228 -0.22939143
0.06758211 0.19553600 0.2669769
-0.1333019 0.16570801 0.14943007
0.15544952 -0.04308400 -0.07648922
-0.18115266 0.16570801 0.21890045
0.23850037 -0.26298380 -0.23862
0.18596609 -0.07133167 0.23862
-0.1200503 -0.04308400 -0.110655
0.07291102 0.19553600 -0.07730949
-0.1316541 0.16570801 0.1716477
0.178965 0.13285814 0.20008487
0.17619696 0.16570801 -0.18182175
-0.29827499 0.19781485 0.25725373
-0.16041621 -0.07291200 -0.02612969
0.23862 0.07522396 0.20579557
0.17534542 0.19553600 0.05182433
0.15892406 0.16570801 0.02242356
-0.26138989 0.19553600 -0.1551983
-0.29827499 0.20585546 -0.29712038
0.21878521 -0.04308400 -0.15370272
-0.20277344 0.16570801 -0.06981485
-0.1756304 0.25519100 -0.02874519
-0.01121308 -0.07291200 0.02557456
-0.01894232 -0.04308400 0.0399123
0.08640489 0.16570801 -0.25096949
0.01843639 0.25519100 0.29487076
-0.09928083 0.19553600 0.23839189
-0.21343959 0.16570801 -0.20347532
0.23862 0.09223836 -0.20323798
-0.28374151 0.25519100 -0.20019745
0.29827499 0.24182898 0.22388798
0.20878356 0.21905480 -0.29827499
-0.14015091 0.25519100 -0.13598523
0.20684928 -0.03492860 -0.23862
0.21026855 0.13118371 0.23862
0.21687625 -0.28170401 -0.22964076
0.28017804 0.25519100 0.20054682
0.178965 -0.04851644 -0.22214621
-0.2821176 0.19553600 -0.11865677
0.18112569 0.25519100 -0.07611211
0.19471413 0.19553600 -0.10354351
0.07378572 0.16570801 0.19069805
-0.04298826 0.19553600 0.01619251
-0.08559451 0.19553600 0.21015892
0.29827499 0.20178696 -0.2120593
-0.06274801 -0.07291200 -0.04932375
-0.04031571 0.19553600 -0.07128929
0.1210265 -0.04308400 -0.01054649
0.23862 -0.13600266 -0.20039664
-0.04408869 0.25519100 -0.11343448
0.22336411 0.08989646 0.23862
0.07331752 -0.06630648 0.23862
0.18313103 -0.09931109 0.23862
0.26578113 0.16570801 0.14626477
0.25149769 0.25519100 -0.16286235
0.10700454 0.25519100 0.05195925
0.178965 -0.05615937 0.20823993
0.09335566 -0.04308400 0.12625201
0.19543323 -0.04308400 -0.02387036
-0.03568637 0.25519100 0.04404485
-0.06751969 0.16570801 0.00144786
-0.19158493 -0.05265818 0.178965
0.01701828 0.16570801 0.05844674
-0.15777573 0.19553600 -0.04731972
-0.06952601 -0.07291200 0.03658081
-0.22999419 -0.11696791 0.23862
0.00243648 0.16570801 0.24306687
0.01616393 -0.04308400 -0.13968504
-0.18878551 -0.16446414 -0.23862
0.17164578 0.16570801 -0.26394941
-0.01195667 0.25519100 -0.12954795
0.21099202 0.13353594 0.23862
-0.12503608 -0.07291200 0.16802964
-0.22532495 -0.04308400 0.10980929
0.10573609 -0.04308400 -0.23431629
0.22682416 -0.01171404 -0.23862
0.24304391 0.19553600 0.03226812
-0.05290074 0.16570801 0.00575046
-0.18070436 0.17781578 0.26844701
-0.18887492 0.14940720 -0.178965
-0.25721904 0.19553600 0.02683761
0.19670862 0.19553600 0.0724088
-0.00364967 -0.07291200 0.21437752
-0.16041805 0.19553600 0.25361235
-0.24869296 0.19553600 0.09711849
0.10733002 0.23963004 -0.29827499
0.29714072 0.25519100 0.1749176
0.19096303 0.16570801 -0.16536002
-0.09569818 -0.04308400 -0.16085825
0.23862 0.06446422 -0.18951973
-0.22382927 -0.03452873 -0.178965
-0.23862 0.07431279 0.20653239
-0.20176264 -0.04308400 -0.08371258
0.22701499 -0.23156289 -0.23862
-0.18451974 -0.28170401 -0.22436288
-0.23862 -0.00450302 -0.18109438
-0.29313283 0.25519100 -0.17809105
0.25270817 0.16570801 0.02705254
0.20939367 0.25519100 0.08541738
-0.17337194 -0.07291200 0.00194491
0.20946447 0.16570801 -0.03967137
-0.03171786 0.19553600 -0.26233889
-0.04697558 0.19553600 -0.08542867
-0.05602547 -0.04308400 0.10773832
-0.16537879 0.25519100 0.18652633
-0.12711669 -0.04308400 0.15559867
-0.14237174 0.19553600 0.1380281
-0.00487562 0.16570801 -0.25104971
-0.18119424 -0.03609950 0.178965
0.21364537 -0.28170401 -0.23737626
-0.07048687 0.25519100 0.10036445
0.2540278 0.19553600 0.1215372
-0.12094565 0.25519100 0.07494124
0.178965 -0.25203030 0.2232819
-0.23862 -0.26712231 -0.19769601
0.28423011 0.25519100 0.10140717
0.08708289 -0.07291200 0.18098811
-0.07525618 0.19553600 -0.24522923
-0.13284522 0.19493030 0.26844701
-0.12908834 0.19553600 0.24979293
0.2546437 0.19553600 -0.10062457
0.27283307 0.19553600 -0.06684959
0.21572733 -0.09514339 0.178965
0.11469098 0.19553600 -0.12362029
0.19507584 -0.28170401 0.19627518
0.21410799 -0.13351694 0.178965
-0.2246174 0.19553600 -0.15747926
0.00155082 0.16570801 -0.13558566
0.178965 -0.22509074 -0.18706611
-0.19097212 0.16570801 -0.12974698
0.1522751 0.16570801 0.20680657
-0.11423186 -0.04308400 0.1036603
0.178965 0.02948159 -0.20093252
0.20858052 0.09989274 0.178965
-0.15209133 0.16570801 -0.10757628
-0.20092646 -0.15213461 -0.178965
0.15939912 0.25519100 -0.02586287
0.24392345 0.25519100 0.06675892
-0.22508256 -0.18066146 -0.23862
-0.22186674 -0.07291200 -0.15619536
-0.0452367 -0.07291200 0.2188004
-0.26844701 0.18188248 -0.12542135
-0.0490563 -0.07291200 -0.10002621
0.03180649 0.16570801 0.17487125
0.27108022 0.22244594 0.29827499
-0.29827499 0.23323661 -0.0473234
-0.10325686 -0.07291200 -0.19033947
-0.07578551 0.16570801 0.12450042
0.04791237 -0.04308400 0.08977394
0.178965 -0.15781310 0.18143998
-0.21062083 0.25519100 0.23254494
-0.12543384 0.16570801 0.26620259
0.04343211 0.25519100 -0.08521096
-0.10699692 -0.04308400 0.20807314
0.04576651 0.25519100 -0.22092712
-0.09235966 0.19553600 -0.2628895
0.05627681 0.25519100 -0.22044739
-0.27739483 0.25519100 0.04501544
-0.00116188 -0.07291200 -0.12491325
-0.178965 0.06454617 0.21648674
-0.11696204 -0.07291200 -0.09687594
-0.08942545 0.25519100 0.05224046
-0.19937137 -0.12050666 -0.178965
0.20762384 0.25519100 0.07649142
0.11861782 -0.07291200 0.21243165
0.063613 0.16570801 -0.15996683
0.11985655 -0.04308400 0.11860243
0.23862 -0.06830212 -0.03881083
-0.05580835 -0.04308400 -0.11305787
-0.09667188 0.16570801 -0.25654504
0.29827499 0.24918047 0.08286092
-0.18135992 0.25519100 0.12980564
-0.18345692 -0.07291200 0.14899271
-0.22590944 0.19553600 0.14775872
0.04673501 0.25519100 -0.09789021
-0.14290261 0.16570801 0.21728256
0.17627212 -0.04647603 0.23862
0.26664463 0.25519100 -0.29025701
-0.13348643 0.25519100 -0.20467941
0.06236569 -0.04308400 -0.1193849
0.08427179 0.19757851 -0.29827499
0.178965 -0.09846918 -0.21673816
0.0918825 0.19553600 0.04687978
0.18827561 0.25519100 -0.21214628
0.06137539 0.19553600 -0.03224174
0.13742418 -0.07291200 -0.21162866
-0.013772 -0.06456442 -0.23862
-0.06523768 -0.07291200 -0.12430888
-0.178965 -0.25130558 -0.22695808
-0.2428576 0.16570801 0.2422437
0.2106437 0.19553600 -0.11547844
-0.2237146 -0.16384936 -0.178965
-0.178965 -0.20708954 -0.19025154
0.12844027 0.16750455 -0.26844701
-0.05764799 0.25519100 -0.10470948
0.25322334 0.25519100 0.18098415
-0.11899578 -0.07291200 -0.23126897
-0.09184409 0.19553600 0.14964548
0.22294693 -0.04308400 -0.12907048
-0.14721292 -0.07291200 0.16523478
-0.23862 0.03596592 0.18581042
-0.13148115 0.16570801 -0.05630795
0.29156995 0.25519100 0.10066671
-0.1109513 0.19553600 0.18017044
-0.270627 0.19553600 -0.05566387
-0.00051163 -0.05643151 -0.23862
0.13148321 0.16570801 0.24097958
0.20977337 -0.04308400 -0.16773972
0.02962346 0.16570801 0.26590653
-0.23862 -0.17713574 0.22827734
0.23662952 -0.14377808 -0.23862
-0.0340853 -0.07291200 0.17548432
-0.18548039 0.19553600 0.15971326
-0.20569604 -0.21095706 -0.178965
0.23273911 -0.04308400 -0.04619681
-0.08209168 -0.07291200 0.20099336
-0.14676995 0.25519100 -0.25727015
-0.10604861 0.19553600 -0.20598519
0.21998335 0.18918229 0.26844701
0.2073816 -0.20331477 -0.178965
0.20950281 0.25519100 -0.10577519
0.21242824 -0.03968046 -0.23862
-0.2347984 0.07093242 0.23862
0.28022528 0.23020149 -0.29827499
0.12547446 0.25519100 0.11265989
-0.18691199 -0.19640858 -0.23862
0.20652734 0.25519100 0.04462752
0.22091037 0.25519100 -0.04000975
0.10439137 -0.04308400 -0.11041873
0.05155365 -0.04308400 0.12351523
-0.04878049 0.16570801 -0.17655665
-0.23172085 0.16570801 0.22950983
0.29827499 0.23798683 0.23630994
0.10086162 0.16570801 0.00905479
-0.01273023 -0.04308400 0.07350847
-0.18342026 -0.04308400 0.16743625
0.15140357 0.19553600 -0.2130868
-0.22481074 0.25519100 -0.01718901
0.23719796 0.16074572 -0.23862
0.10137815 0.25519100 0.00943939
0.14246229 0.16570801 -0.05568259
-0.23862 -0.20839923 -0.20451104
-0.178965 -0.20623015 0.23463806
-0.178965 -0.18091046 -0.20376678
0.26844701 0.18011692 -0.20008217
0.08041749 0.19553600 0.21296671
-0.17410656 0.25519100 0.18096489
-0.02607571 0.19553600 -0.23908166
-0.2362232 -0.12623420 -0.178965
0.00096422 0.16570801 0.01085907
-0.11163465 0.25519100 0.14079572
-0.0345744 0.19553600 0.2978949
-0.09531406 -0.07291200 0.06882585
-0.2944607 0.19553600 0.28881068
0.02619413 0.19553600 0.1826071
-0.14743741 -0.04308400 0.11421621
0.28854551 0.19553600 -0.22116515
-0.23541532 0.16570801 -0.04910158
0.22141729 -0.28170401 0.22900133
0.27020743 0.21905445 -0.29827499
-0.26567461 0.25277981 0.29827499
0.12092677 -0.07291200 -0.08754769
-0.23053098 0.16570801 0.2379989
-0.29827499 0.22964834 -0.03205202
0.18536134 -0.07291200 0.15256026
0.23750781 0.25519100 0.1824872
0.19418122 0.07048196 0.23862
-0.21429066 0.19553600 -0.23512361
0.01872048 0.25519100 0.12687043
0.18004823 0.05402622 -0.23862
-0.13644943 0.16570801 0.10125711
0.23524223 0.07432848 0.178965
-0.23398856 0.16570801 -0.09616879
0.29827499 0.24273163 -0.12462782
0.08125675 -0.04308400 -0.0876806
0.11877906 -0.04308400 0.18600311
-0.21415876 -0.19273038 0.23862
-0.18903303 -0.05584585 0.178965
0.11295927 0.25519100 0.02943263
0.20533896 -0.07291200 0.11636113
0.2277984 0.25519100 0.21065363
-0.02880303 0.19553600 -0.17388415
0.25542597 0.16570801 0.05784942
-0.14563049 0.16570801 0.08414327
0.03472065 0.25519100 0.050078
0.23862 0.11833190 -0.19311371
-0.18389594 -0.14776912 -0.178965
-0.21975221 -0.00741206 0.23862
0.22321368 -0.18375393 0.23862
0.178965 0.13801980 0.22952046
0.22624191 0.16570801 0.22804864
0.178965 0.05278812 -0.18882455
0.1995234 0.05165811 -0.178965
-0.29827499 0.21846402 0.27804955
-0.16611893 0.17722404 0.26844701
0.12943779 0.25519100 -0.13019835
0.03829992 0.19553600 -0.1578771
0.00690998 0.25519100 0.19780105
-0.178965 -0.00165785 -0.23076158
-0.178965 -0.14639516 -0.18601227
0.22836441 0.12735852 0.23862
0.22985234 0.19553600 -0.00432893
0.20454672 -0.28170401 -0.1980131
-0.23052745 0.07822539 -0.23862
0.14376193 -0.07291200 0.04895782
0.23862 -0.16778954 -0.2054779
-0.11238335 -0.04308400 -0.08251758
-0.12529539 0.25519100 0.0212983
-0.10818713 0.19553600 0.05639031
0.178965 -0.12179358 0.19354568
-0.21863592 -0.04308400 -0.11812757
-0.27405879 0.25519100 0.21186372
-0.13158685 0.25519100 -0.02606987
0.19054447 0.16570801 -0.18134272
-0.23762303 0.19553600 -0.08459913
0.21479387 -0.28170401 -0.22681732
-0.05067979 0.19553600 0.29091673
0.03824149 0.16570801 -0.19321453
0.20147841 0.25519100 -0.14760741
-0.23862 0.00157614 -0.21065786
-0.28248107 0.19553600 -0.29798139
-0.09334666 -0.07291200 0.08585239
-0.04980091 0.25519100 0.16304185
0.16145565 0.19553600 0.00575701
0.04809452 -0.07291200 0.18781222
-0.01561433 0.16570801 0.18222495
-0.29018135 0.25519100 -0.18239503
-0.04862147 -0.04308400 -0.19550903
-0.11614031 0.25519100 0.17485708
0.04150071 -0.04308400 0.21497949
0.01367422 0.25519100 0.19384021
0.08090253 0.25519100 0.15184759
-0.06067108 -0.07291200 -0.1013452
-0.1449575 0.16570801 0.23688695
-0.22990747 0.09230084 0.178965
-0.03819168 0.19553600 -0.13806092
0.23531869 0.25519100 -0.28479001
-0.13201548 0.25519100 0.14650977
0.29827499 0.19789722 0.18759431
-0.14296591 0.16570801 0.11812882
-0.11087323 0.16570801 -0.01897868
-0.2129788 -0.09695671 -0.23862
-0.23862 -0.21384713 0.19507817
-0.20692294 -0.11661510 -0.23862
-0.14738567 -0.04308400 0.17244199
-0.29827499 0.25377848 0.23452716
0.178965 -0.10602108 -0.20564594
0.20252871 0.16570801 -0.20048398
-0.18229165 -0.27925678 0.23862
0.04184813 0.25519100 -0.19607789
-0.05752037 0.25519100 -0.00273409
0.20371334 0.25519100 0.27701593
-0.06769692 0.17621088 0.26844701
0.20244107 -0.26990157 -0.178965
0.27303978 0.19553600 -0.23228444
0.23862 -0.04443336 0.15875443
-0.18086626 -0.07755163 0.23862
0.13781678 0.25519100 0.05769651
-0.012651 -0.04308400 0.16233751
0.09703483 -0.04308400 0.04211925
-0.12979874 0.19553600 -0.00751196
-0.24025424 0.25519100 -0.14586762
-0.29718941 0.19553600 -0.11451081
0.09014617 0.16570801 -0.0378416
-0.20364038 -0.04308400 0.16224484
0.12849398 -0.04699443 0.23862
0.12672115 0.19553600 0.05911396
0.23862 0.08438335 -0.22102304
0.0352777 0.16570801 -0.22670339
-0.29827499 0.21437940 -0.29373876
-0.03798929 0.19553600 0.24800222
-0.01951656 -0.07291200 0.00200514
-0.178965 0.11106482 0.20691848
-0.20831744 -0.28170401 -0.22856725
0.08750959 0.19553600 0.1506157
-0.25879351 0.19553600 -0.23317705
0.08380641 0.19553600 0.26729904
0.20106511 0.25519100 -0.06954458
0.22645946 0.08367095 0.178965
-0.11051109 -0.07291200 -0.05376797
0.28964278 0.21645338 0.29827499
0.19490237 0.20036217 -0.29827499
-0.04203362 -0.07291200 -0.0595827
0.10616006 0.16570801 0.11270119
0.17959922 0.25519100 0.06271094
-0.12381001 -0.04308400 -0.10683881
0.16034806 0.25519100 0.01792424
0.13463172 0.18756525 -0.26844701
0.1244943 0.16570801 -0.20947338
-0.23862 -0.23306185 0.22623657
-0.04977338 0.16570801 -0.1734412
-0.0310005 0.16570801 0.0434327
-0.20305672 0.19553600 -0.04132927
-0.03600813 -0.04308400 -0.05702482
0.29827499 0.22115275 -0.16599666
0.178965 0.04058095 0.19203876
0.03467334 -0.07291200 -0.22303009
-0.26844701 0.17200523 0.21589665
-0.18914466 -0.07206696 -0.178965
0.23412175 0.19553600 0.28192484
-0.23530663 -0.07291200 -0.1527137
-0.07542425 0.16570801 0.19780708
-0.23509889 -0.04308400 -0.15531244
-0.26472089 0.19553600 0.24893445
-0.06932899 0.25519100 0.15754808
-0.00270626 0.16570801 0.05715883
-0.00519239 0.19553600 -0.28967675
-0.23862 -0.07206944 0.11652033
-0.19810636 -0.28170401 0.20238146
0.03828458 -0.04308400 0.23173564
-0.2193585 0.15090642 0.178965
-0.09103592 0.25519100 0.28929182
-0.05904512 -0.07291200 0.1868561
0.22316526 -0.00066076 -0.178965
-0.22771606 0.16570801 0.02275218
0.00514806 0.16570801 0.16000351
-0.26844701 0.19420732 0.17665003
-0.29827499 0.21435113 -0.13289608
0.0368474 0.19553600 0.2359357
-0.04728552 0.25519100 -0.17939355
-0.04151241 0.20285757 0.29827499
-0.10922648 -0.07291200 -0.12321471
-0.21834427 0.19553600 0.14354694
0.19369462 0.01442951 -0.23862
0.05580985 -0.07291200 -0.0334662
-0.2713167 0.19553600 0.09598721
-0.0702066 0.25519100 0.29231013
0.11284573 0.19553600 -0.0039684
-0.24267595 0.19553600 0.14347792
0.10760018 0.19553600 0.19244388
-0.21110889 0.23043989 -0.29827499
-0.08062646 -0.04308400 -0.15311783
-0.11410803 -0.07291200 0.08383348
0.01634499 0.22751770 -0.29827499
-0.24473382 0.25519100 -0.28127894
0.26844701 0.17644410 -0.17930681
0.03538824 0.16570801 0.06362736
-0.06931229 0.16570801 0.12397037
0.21848575 0.16570801 -0.22558176
0.01335381 -0.04308400 0.03860206
0.23862 0.07896428 0.20053617
-0.09013393 0.19553600 -0.0477358
-0.18713493 -0.05386794 0.178965
-0.23862 -0.06512539 0.21745323
-0.0755727 0.20913463 0.29827499
0.1896893 0.16570801 -0.20306989
-0.29528153 0.25519100 0.12373938
-0.23862 -0.00173579 -0.23408899
0.25251505 0.19553600 0.21335929
-0.19402968 0.16570801 0.20258869
-0.15392062 0.25519100 -0.28812162
0.0970826 0.24802174 0.29827499
-0.12119618 0.16570801 -0.13801939
-0.23782716 -0.05433862 0.23862
0.06414881 0.19553600 -0.23126398
-0.23012873 0.25519100 -0.20999336
-0.07826732 -0.06543320 0.23862
0.0595778 0.21694507 0.29827499
0.1947851 0.18350545 0.26844701
-0.20527128 -0.28170401 0.18217827
-0.23780118 -0.15420052 -0.23862
-0.20110974 0.05397182 0.23862
-0.06848906 0.25519100 -0.26355292
-0.18929371 0.02145053 0.178965
-0.19604602 -0.04308400 -0.11560068
-0.13768931 0.25519100 0.01763836
0.07890234 0.25519100 -0.21740828
-0.29827499 0.22888914 -0.18528945
-0.26296974 0.16570801 -0.13336234
-0.23862 0.07663141 0.18946626
-0.23862 -0.20495436 -0.21175722
0.19276537 0.25519100 0.02081981
0.17901944 0.19553600 0.16023734
0.12533837 -0.07291200 0.00483236
0.16855153 0.19553600 0.21696316
-0.29827499 0.24895013 -0.01958249
-0.074659 0.16570801 0.17491334
-0.20950358 0.19553600 -0.14485083
-0.09017225 0.19553600 -0.00415812
-0.09741049 0.19553600 0.19670924
0.04258194 0.19553600 0.18915423
0.13149229 0.25519100 0.28960818
-0.16158687 -0.07291200 0.03273806
0.1891106 0.19553600 -0.02979995
0.18316148 -0.04416879 0.178965
-0.20214045 0.09135212 -0.23862
-0.29827499 0.19702665 -0.05740182
0.21720711 0.16570801 0.0842948
0.1838601 0.08603208 0.178965
-0.21858221 -0.07291200 -0.00077786
0.10544401 0.25519100 0.1799858
0.11291384 0.19553600 0.28261641
-0.0690756 -0.04308400 0.14925314
-0.20852774 -0.07291200 0.16464936
0.10728741 0.19553600 -0.15173321
-0.26844701 0.19297748 -0.19973717
-0.23060455 0.25519100 0.19087849
0.2176808 0.13545870 -0.23862
0.08741205 0.25519100 0.06355723
0.170139 0.24702468 0.29827499
0.21696358 -0.10353837 0.178965
-0.09657355 -0.07291200 -0.17159446
-0.26844701 0.17516563 -0.16140992
0.19777805 0.25519100 0.02011726
-0.22140297 -0.23899388 0.178965
-0.04929262 0.19553600 -0.24405849
-0.03727971 0.19553600 -0.02513629
-0.23672968 0.16570801 0.25954812
-0.20319064 0.19553600 0.07511423
-0.01398097 0.16570801 0.18127112
0.01510053 -0.04308400 0.09849583
0.0966359 -0.04308400 0.04942938
0.07270459 -0.04308400 0.21838889
-0.05727271 0.16570801 0.13509838
0.17698104 -0.04308400 -0.09057854
-0.02157351 -0.04308400 -0.17527468
0.08148279 0.19553600 0.04044184
-0.24926209 0.25519100 0.03941096
0.21099879 0.19553600 0.11492074
-0.02106547 -0.04308400 0.1114078
-0.20480004 0.20442202 0.29827499
0.28322152 0.25519100 -0.16602114
-0.14117028 0.16570801 0.24370595
-0.06389856 0.25519100 -0.13332475
0.09879454 0.16570801 -0.07016334
0.15996667 0.22891635 -0.29827499
0.178965 -0.21686271 -0.21693835
0.05126529 0.25519100 -0.2931281
0.25496191 0.19553600 0.29642208
0.05427633 -0.04308400 -0.12113757
-0.06022655 0.25519100 -0.00828573
0.26746704 0.25519100 0.24796934
0.27360984 0.19553600 -0.12330778
-0.29827499 0.22141821 0.05250449
0.14089039 -0.07291200 -0.19621966
-0.0409228 0.25519100 -0.2271301
0.16388329 -0.07291200 0.14655105
-0.09024665 -0.04308400 -0.10388405
0.15570163 -0.04308400 -0.22556199
-0.18345461 -0.00524620 -0.23862
0.11567583 0.16570801 -0.15704408
-0.0427243 0.19553600 0.0057411
-0.22584812 0.25519100 -0.25677187
-0.19762046 0.19553600 0.23443074
0.20742633 -0.04308400 -0.01737658
0.16231767 -0.07291200 0.00248494
-0.03424058 -0.07291200 -0.03461009
0.19566171 -0.04308400 0.08856172
0.23862 -0.04735280 0.16449609
0.03264013 0.16570801 -0.04549316
-0.18789424 0.16170275 -0.23862
0.14893476 0.16570801 -0.21091442
0.12392857 0.16570801 -0.05544057
0.19748891 -0.07291200 -0.05403844
-0.26844701 0.16822094 0.08394195
-0.23862 -0.08255140 -0.1890227
0.178965 0.03244372 0.17897315
0.18822272 -0.23493656 -0.23862
0.29827499 0.22200067 -0.14660017
-0.20292285 0.13644834 -0.178965
0.12661015 0.19553600 0.05806662
0.18518359 -0.27796099 -0.23862
0.23710971 0.25519100 0.05504875
0.00722755 -0.06833189 0.23862
0.01323763 0.16570801 0.05827182
-0.215839 0.16570801 -0.10896206
-0.29827499 0.24027497 0.15710618
-0.29827499 0.20178032 0.08391204
-0.04985597 -0.07291200 -0.08246689
0.09147705 0.25519100 -0.16468254
0.08754748 0.25519100 -0.02779514
0.29827499 0.23940651 0.12805451
-0.27215972 0.19553600 -0.26161745
-0.12895564 0.19553600 0.09670761
0.2230939 0.25519100 -0.00117805
0.20190926 -0.27144819 -0.23862
-0.23862 -0.04808167 -0.13233197
-0.08313446 -0.07291200 -0.19750344
-0.14855429 0.16570801 -0.01964109
-0.1824771 -0.04308400 0.1384759
-0.2320572 0.16570801 -0.20528925
0.05668369 -0.04308400 -0.05947322
-0.29827499 0.23856042 -0.26870453
0.20663973 0.02732629 0.23862
0.12967157 -0.07291200 -0.06454353
-0.21819803 0.05454483 -0.23862
-0.19771595 -0.18179784 -0.178965
0.19972383 0.16570801 -0.10599903
0.22939207 -0.25347095 -0.178965
-0.06312258 -0.07291200 -0.0672601
0.27987089 0.19553600 -0.22592842
-0.20292539 0.12975790 -0.23862
-0.19712713 -0.02299722 0.178965
0.21866827 -0.05265811 0.178965
0.26844701 0.17161221 0.02402986
0.21733236 0.08496415 -0.23862
-0.0777197 0.25519100 -0.21816015
-0.178965 -0.14971422 0.22730297
-0.07011701 0.16570801 0.05515122
-0.07585804 0.25519100 -0.24456269
0.21047786 -0.07291200 0.16937519
-0.13010914 0.25519100 0.02388396
-0.21805226 0.16570801 -0.09373935
0.18541656 0.16570801 0.26300954
0.20545541 -0.04308400 0.11274599
-0.11418504 -0.07291200 0.05262025
-0.18510811 -0.21620433 0.23862
0.11643703 0.16570801 -0.20933463
0.17022849 -0.04308400 -0.06275348
-0.14655368 -0.04308400 0.07888375
-0.11805317 0.19553600 -0.12893838
-0.1996091 0.25519100 0.1344167
-0.00800031 0.19553600 -0.27875124
0.04487573 0.16570801 -0.03731139
0.29827499 0.22594178 -0.27043974
-0.17667731 -0.04308400 -0.03200718
-0.12580783 -0.07291200 0.15725349
-0.05351478 0.16570801 -0.12589576
-0.29827499 0.22237872 -0.02843178
-0.178965 0.12928411 0.20959907
-0.26844701 0.18464893 0.19385928
0.23862 -0.05956408 -0.22704996
0.26844701 0.17139327 -0.06528097
-0.24439746 0.16570801 0.10883358
-0.178965 -0.13429323 -0.20555138
-0.178965 0.14106606 -0.21724727
0.08028766 0.25519100 0.07468407
-0.13200092 0.19553600 0.11152317
-0.23089368 0.14551731 0.178965
0.21635183 0.25519100 0.00579255
0.09836522 -0.04308400 -0.11817625
0.11983644 0.20465572 0.29827499
0.19417954 -0.20151271 0.178965
-0.11537473 0.19553600 0.28556764
0.23862 0.09313815 -0.21518293
0.1838224 -0.06655491 0.178965
-0.18136844 -0.07291200 -0.05873587
-0.1451216 -0.04308400 0.199221
0.178965 -0.18454730 -0.17931005
0.21619294 -0.09280190 -0.23862
-0.22509701 0.13089606 0.23862
-0.29375322 0.25519100 -0.17065716
-0.08770733 -0.07291200 -0.08804895
0.26118503 0.19553600 0.2158748
-0.09155092 0.19553600 -0.17976118
0.07608936 0.16570801 0.10588537
-0.02283792 0.25519100 0.29709841
-0.10408451 0.16570801 -0.22827466
0.15937821 0.24649714 0.29827499
-0.13552958 0.19553600 0.10753327
-0.09222865 -0.04308400 -0.12095498
0.11783785 0.25519100 -0.27310418
0.10295472 -0.04308400 0.21712441
0.23862 -0.23108012 -0.22930229
0.02424826 0.22450694 0.29827499
0.11712312 0.16570801 0.06591512
-0.178965 0.10721075 -0.23064828
-0.178965 -0.13529456 -0.19597946
0.2046507 0.19553600 0.26703603
-0.14769242 -0.04308400 0.03432991
0.29827499 0.19928731 0.0767904
-0.10042017 0.16570801 -0.1274673
-0.27990082 0.19553600 -0.01993971
-0.13375147 0.25519100 -0.06901365
0.15800052 -0.04308400 -0.05205644
0.12923167 0.16570801 -0.18564526
-0.14271632 0.25519100 -0.18863186
-0.29065069 0.25519100 -0.07930984
0.0948765 -0.04308400 0.00338738
0.17898237 0.16570801 -0.0734452
0.19065406 0.16570801 -0.26518399
0.15587957 0.19553600 -0.00651569
0.10054451 0.25519100 0.0640665
0.02603965 0.25519100 -0.25420639
-0.12838796 0.19553600 0.00381668
0.21678589 -0.06183664 -0.23862
-0.07712912 -0.07291200 -0.17816635
-0.19849059 0.16570801 -0.16056472
0.20397884 0.15680990 0.23862
-0.178965 -0.01184949 -0.1871123
-0.178965 0.14075254 -0.21563216
0.23336222 -0.18647180 -0.178965
-0.01157392 0.25519100 0.00572385
0.15800287 -0.04308400 -0.03237032
0.14423435 -0.04367611 -0.23862
0.14424943 -0.04308400 0.15879805
0.178965 -0.16405702 0.18258404
-0.07711207 -0.07291200 0.2239771
0.12309442 0.25519100 -0.22585911
0.01478823 0.19553600 -0.06264303
0.23862 0.05627223 0.22286946
0.26844701 0.19453053 -0.04308429
-0.19663252 -0.18125685 -0.178965
-0.12823998 0.16570801 0.20937536
-0.26977967 0.19553600 0.19235842
-0.18708813 0.19553600 0.28052571
0.23862 0.16568492 -0.1858512
-0.19679928 0.25519100 0.19592847
0.04461341 -0.04308400 0.11785179
-0.10332592 -0.07291200 -0.15714968
-0.17699505 0.19553600 -0.22552679
0.178965 -0.22687209 -0.19386474
0.27045574 0.25519100 -0.13343575
-0.23202312 -0.04856262 -0.178965
0.178965 0.02127650 0.20772779
-0.24842355 0.19553600 -0.29557337
0.07786685 -0.07291200 -0.21692951
0.17510742 0.25519100 -0.22221245
-0.29827499 0.22818617 0.04689584
-0.23862 -0.20949816 0.20956568
0.21337753 -0.19132584 0.23862
0.1215973 0.19553600 -0.27921253
-0.10460111 -0.04308400 0.09134434
0.00118493 0.19553600 -0.16875334
-0.09295457 0.25519100 0.19059833
-0.21179276 -0.26797502 -0.178965
0.09557379 0.19553600 0.00127716
-0.24967144 0.16570801 -0.20361678
-0.20988509 0.15283169 0.23862
-0.23862 -0.26731054 0.17919329
0.08038591 0.24081923 0.29827499
-0.178965 -0.00112007 0.22660318
0.03389534 0.19553600 -0.10700816
-0.20908816 0.03425034 0.23862
0.18080521 -0.08846046 -0.23862
-0.18355248 0.14602899 -0.178965
0.28368078 0.19553600 -0.04557906
-0.23862 -0.13148636 -0.23476099
0.12433784 0.16570801 0.03579425
0.1740145 0.19553600 0.28988742
0.23862 -0.05478530 -0.0582778
-0.15327256 0.25519100 0.19563148
0.23862 -0.21776536 -0.22705253
-0.00110493 0.24893682 0.29827499
-0.16558237 0.16570801 0.16071155
0.2371851 0.09533100 0.178965
0.08155035 -0.04308400 -0.05333957
-0.09220298 -0.04308400 0.02750689
0.09611477 -0.07291200 0.06548338
0.21356433 0.16570801 -0.04163128
0.24861882 0.16570801 -0.2317342
-0.23862 -0.01564007 -0.20308545
0.22979397 -0.07011119 -0.23862
0.16520375 -0.07291200 -0.02633871
-0.23862 0.03585113 0.21552122
0.2192419 0.16570801 -0.07816913
-0.05590681 -0.04308400 -0.04040852
0.21041962 0.25519100 0.06458428
0.26844701 0.18406466 -0.03608383
-0.09121181 0.19360726 -0.26844701
0.24369887 0.16570801 0.24473713
0.15695365 0.25519100 -0.16952198
-0.14067678 0.19553600 0.25354364
-0.178965 -0.12147282 0.18837272
0.22217923 0.16570801 -0.06402236
-0.19184202 0.08283426 -0.178965
0.178965 -0.12788105 0.18523991
0.24922937 0.25519100 0.12545532
-0.178965 0.03382001 -0.18572904
-0.18034796 -0.05972519 0.23862
-0.28320574 0.19553600 0.03980429
-0.26844701 0.16630621 -0.08105504
0.23862 -0.05679467 -0.21913228
0.178965 -0.01979463 -0.19726304
-0.01174581 0.16570801 0.13944461
0.17759301 0.25519100 -0.084078
0.26844701 0.19052425 -0.07114476
-0.23862 -0.16937386 -0.21062918
0.07139513 0.25519100 0.14966936
0.23760661 0.03319805 0.23862
0.073848 0.19717115 -0.29827499
-0.15581501 0.25519100 0.18386639
-0.23862 -0.20446279 -0.1913951
0.16067717 -0.04308400 -0.0321582
-0.29045609 0.25519100 0.28515027
0.18359312 0.25519100 -0.13323534
-0.02881091 0.16570801 -0.11029587
0.28158594 0.25519100 0.12084185
0.23862 0.13900667 -0.20314473
-0.29827499 0.20356335 -0.14809185
-0.11787284 0.25519100 0.06949985
0.14573827 -0.04308400 -0.07711378
-0.18066657 -0.04308400 -0.17085963
0.0007726 0.19553600 -0.07790431
0.19192938 0.16570801 -0.08796592
0.23862 -0.16301884 0.20095176
-0.0128576 -0.04308400 -0.20703707
0.11337402 -0.04308400 0.09139576
0.16584293 0.16570801 -0.23604386
0.08148129 -0.05893617 -0.23862
-0.0768701 0.19553600 0.13246654
0.11658905 0.25519100 0.28279844
0.18838241 0.25519100 0.12399579
0.18931798 -0.04308400 0.04435374
-0.10963686 0.16570801 0.17822641
0.02982476 -0.07291200 0.00818622
0.19904022 -0.07291200 0.07799936
0.1428973 0.16570801 0.12129039
-0.26645194 0.19553600 -0.12312339
-0.24674324 0.21069355 -0.29827499
0.16229534 0.19553600 -0.14277885
-0.07475717 -0.04308400 -0.19276399
-0.178965 -0.10740037 -0.21726338
0.14430336 0.16570801 -0.12750916
-0.06070492 0.19553600 0.17588336
-0.19397255 -0.04308400 0.03106277
-0.00501529 0.25519100 -0.1540029
-0.2198072 0.06009341 0.23862
-0.07274068 -0.04308400 -0.03789047
-0.16580049 -0.07291200 -0.14576229
0.20865706 -0.11426051 0.178965
0.1822518 -0.01569999 -0.23862
0.29648597 0.20807996 -0.29827499
0.04108524 0.19553600 0.27558426
0.2496305 0.25519100 -0.02685308
0.29688931 0.19553600 0.22491787
0.29827499 0.24943642 -0.13027602
0.15314544 0.25519100 0.13368383
0.02810482 0.25519100 -0.12243293
0.19956227 0.19553600 -0.0945205
-0.29827499 0.22792944 0.2859147
0.178965 -0.02312632 -0.19459816
0.10409516 -0.07291200 0.06388765
0.03498231 0.16570801 -0.13674523
0.21423149 -0.00159023 -0.178965
0.178965 -0.10868471 0.23533354
-0.16293655 -0.04308400 0.21311504
0.14424033 0.25519100 -0.04794842
-0.26520987 0.19553600 -0.10438465
0.06224154 -0.07291200 0.08688614
-0.04124528 0.25519100 0.2705205
-0.07039581 0.16570801 0.24270436
0.23769708 0.25519100 -0.24909487
0.19144115 0.05210672 0.178965
-0.2107712 -0.10410603 0.23862
0.08442831 -0.07291200 0.21101382
-0.09087783 -0.04308400 0.11510867
0.00434993 -0.07291200 -0.17837396
0.23862 -0.16534410 -0.22763325
-0.07800142 0.19553600 0.07742969
0.14330069 -0.04308400 -0.14801752
-0.2213644 0.19553600 -0.198574
-0.10008824 0.25519100 0.09194196
-0.19932153 0.16570801 -0.05565835
-0.22058808 0.16570801 0.2072861
0.05941067 0.21027535 -0.29827499
-0.26259088 0.16570801 0.146938
-0.05173378 0.25519100 -0.09147454
-0.04092619 -0.04308400 0.1437922
0.00106424 -0.04759141 -0.23862
0.1764165 0.16570801 -0.14266646
0.19072592 -0.07291200 -0.03955579
-0.24821567 0.25519100 0.10249554
0.05005176 0.25519100 -0.17389541
0.14900337 0.16570801 0.21334472
0.21521143 -0.00079492 -0.23862
0.09981709 0.24214303 -0.29827499
0.29827499 0.20491686 0.18171836
0.14659551 -0.04308400 -0.02017452
-0.23862 -0.07055525 0.12822833
-0.2028741 -0.07291200 -0.07808238
-0.20874291 0.19553600 0.18072724
-0.00740023 0.19553600 -0.14017411
-0.19275653 0.19032680 0.26844701
-0.17378359 0.19553600 0.07572892
-0.13098672 0.16570801 0.05401526
0.17717404 -0.04308400 -0.21677975
-0.04175403 -0.07291200 -0.04959203
-0.06466998 0.25519100 0.05570578
0.19797247 -0.07291200 -0.15139025
0.11186066 -0.04308400 0.21663432
-0.1938481 0.16570801 -0.19423794
0.06104486 0.25519100 0.28579462
-0.04372576 0.20041636 -0.29827499
-0.175583 -0.04308400 -0.03689903
0.18375141 0.19553600 -0.06753774
-0.17651398 -0.04308400 -0.13450938
0.02770341 0.19553600 0.01075699
-0.05528832 0.25519100 0.29041693
-0.25603474 0.16570801 0.0840315
-0.23862 -0.20404685 0.20597461
-0.25332772 0.16570801 -0.25468884
0.25882659 0.16570801 -0.10577872
0.13646318 0.19553600 -0.24227592
0.26550236 0.19553600 -0.26539295
-0.22035013 0.25519100 0.15550009
-0.21891725 -0.04308400 0.1129916
-0.2166696 0.10872518 0.23862
-0.08491768 0.19119621 -0.26844701
-0.08035002 -0.04308400 0.20671503
0.1844571 -0.26053013 0.23862
-0.22149182 0.11421668 0.23862
-0.01908154 -0.04308400 -0.00384302
-0.12986186 -0.04308400 -0.06296116
0.2468736 0.16570801 0.18987744
-0.23716289 0.25519100 0.24825802
0.25227492 0.19553600 0.12922763
0.21595705 -0.07291200 0.03085881
0.22400064 0.19553600 -0.16415504
-0.06129741 -0.07291200 0.00656882
0.11534263 -0.07291200 0.03087961
0.15574229 0.25519100 -0.01082115
0.08228235 -0.04308400 0.20104809
0.04387852 0.19553600 -0.06712126
-0.21796187 0.19553600 0.15737856
0.05631953 -0.07291200 0.15705569
0.04007645 0.18173437 -0.26844701
-0.23862 0.08569220 0.18389749
0.17794038 -0.07291200 -0.20281707
-0.00962038 0.16570801 0.00389412
-0.26494011 0.25519100 0.18874775
-0.13729489 0.19553600 0.18376282
0.00298222 -0.04308400 0.1381397
-0.19158487 -0.18437419 0.23862
-0.21899127 -0.06428806 0.23862
-0.20394199 -0.04308400 -0.090068
0.26844701 0.16608665 -0.19984517
-0.208701 -0.17532863 -0.23862
-0.07526233 -0.04308400 0.14769973
-0.178965 0.00147629 -0.23854147
0.10944899 0.25519100 -0.03145537
-0.18939389 -0.18171345 0.178965
-0.1616933 0.25519100 0.25461935
0.09883022 -0.05825678 0.23862
0.22621154 0.23373001 0.29827499
0.17729516 0.19553600 -0.06870607
-0.07437904 -0.07291200 0.12836326
-0.23862 -0.25600284 -0.18965539
-0.23862 0.10655608 -0.22932255
0.24361296 0.17683874 0.26844701
-0.28902429 0.19553600 -0.1316178
0.13347189 -0.07291200 0.2152923
-0.23862 -0.19711312 -0.18351413
0.05237985 -0.04308400 0.00338649
-0.03295372 -0.07291200 0.20113966
-0.22519391 -0.22064742 -0.23862
-0.09408195 -0.04308400 -0.17978998
-0.12078728 -0.07291200 0.10165256
0.12706624 0.19553600 0.15912765
0.20898311 -0.07291200 0.08858188
-0.29827499 0.20470464 -0.18144594
-0.23862 -0.10679743 0.19596726
-0.13494117 -0.04308400 0.10304434
-0.18938595 -0.20931951 0.23862
0.16330688 0.25519100 0.16780162
0.12426222 0.16570801 -0.02787681
-0.18284547 -0.18496970 0.23862
0.03448032 0.16570801 -0.00700072
-0.02215605 0.16570801 0.01482831
-0.22756945 -0.16930543 0.23862
-0.12200093 0.19553600 0.09534241
0.10489103 -0.07291200 -0.11216847
0.17066312 0.19553600 0.09396205
-0.05539442 -0.04308400 0.14785369
-0.16642777 -0.07291200 0.17062805
