# .PCD v0.7 - Point Cloud Data file format
VERSION 0.7
FIELDS x y z
SIZE 4 4 4
TYPE F F F
COUNT 1 1 1
WIDTH 1396
HEIGHT 1
VIEWPOINT 0 0 0 1 0 0 0
POINTS 1396
DATA ascii
-0.1275648 0.00774627 0.29304328
-0.10986606 0.00912186 0.04755902
0.12023825 0.03218849 0.30603588
-0.02602003 0.06149971 -0.27730541
0.11498434 0.08768249 -0.14038819
0.07924147 -0.08041600 -0.07714762
0.0442585 -0.08041600 0.13171407
0.00600142 0.12291588 0.04577147
0.04329314 0.04481525 -0.24711768
-0.05414084 -0.05062928 -0.07188567
-0.07112617 -0.07715575 -0.28716656
-0.00937134 0.06204609 -0.19232385
-0.08932379 -0.06316400 0.39051045
0.15138398 -0.02377832 -0.3561423
-0.12792363 -0.05194146 -0.08804861
-0.13207414 -0.04534765 -0.08220957
-0.05609616 0.04474785 0.23981985
0.16379556 0.00478861 -0.02924872
-0.02058136 -0.05841405 -0.43377674
0.0207942 0.06677080 -0.22319459
0.06688197 -0.08084633 0.22305614
0.09393684 -0.07688650 0.39657592
0.16671538 -0.08811265 0.20576319
-0.05612018 0.04960282 -0.07071576
0.15517457 0.00327899 -0.32280232
-0.13287874 -0.08041600 0.15552219
0.13254866 -0.09685810 0.2363272
0.07663289 -0.06719800 0.09957782
-0.03191295 0.02730977 -0.35683306
-0.12253131 0.01345291 0.06359208
-0.12877055 0.00860740 0.18645265
-0.10978564 0.06018041 -0.30366284
-0.18238249 0.03952999 -0.27232863
0.176176 -0.03129810 0.29683283
-0.08215088 0.10481373 -0.12284978
0.13701007 -0.05907451 0.01654969
-0.15925799 -0.02132462 -0.27617587
-0.15709651 0.02876972 0.30719663
0.11474839 -0.05344299 0.09911547
0.1368116 0.01769968 -0.35003064
0.117917 -0.07984008 0.26879199
-0.12109227 0.03558232 0.0956269
-0.09227936 -0.02235025 0.22786958
0.06970772 0.02997857 0.10627006
-0.11935706 0.06882005 -0.24986939
-0.14158012 -0.05837071 0.07304399
-0.17662134 -0.04210309 -0.39795217
-0.147724 -0.05479556 0.24135171
0.168863 -0.03223455 0.20845735
-0.09443781 0.04484660 0.17077113
-0.00278047 0.07404873 -0.29158153
-0.05035566 0.03033199 0.23494659
0.01858555 0.05376200 -0.31254297
0.18397777 0.03105947 -0.21998186
0.14008176 -0.08041600 0.06870954
0.055356 -0.06810125 -0.35119443
-0.09588149 -0.06719800 -0.01402412
0.02633452 0.02241377 -0.17420922
-0.10518007 -0.00792516 0.39162378
-0.16950839 -0.07194202 0.14631858
0.10260116 -0.08124824 0.28362731
0.079713 0.08575615 0.10839873
0.14905126 -0.08041600 -0.0623522
0.16434393 -0.02485193 -0.41262278
-0.00854912 0.05949278 -0.2525037
-0.16138111 0.02102001 0.21993493
-0.17541156 -0.05315238 -0.14685007
0.05190871 -0.06926897 0.40180132
0.17195253 0.04143591 -0.29419605
0.151611 -0.01266481 -0.26408539
0.0115482 -0.05437478 -0.07002596
-0.14630864 0.04355604 0.25036495
-0.05331205 -0.04400456 0.04600728
0.15093908 0.01228229 0.30112121
-0.13066283 -0.02748694 -0.42514156
-0.0684332 0.03139798 -0.30356123
-0.06696337 -0.06719800 0.02319888
-0.04999115 -0.04164020 0.178857
0.1734957 -0.00450454 -0.33605836
0.06695794 0.08597162 -0.24158847
0.12115999 -0.08041600 -0.09721173
0.02617381 -0.08001278 -0.23161376
0.110886 -0.00605674 -0.33385923
-0.056702 0.05203701 -0.19920291
0.09146055 -0.08041600 0.01999398
-0.13913793 0.00375235 0.18272756
0.00069944 0.11669425 0.06305154
0.05567699 0.04463631 0.24088627
0.14914439 0.03182596 0.22252607
-0.148223 -0.04746954 0.26765259
-0.02037699 0.03404908 0.29550181
-0.04101113 -0.06337250 0.16668067
-0.02666148 0.06249959 -0.20942167
-0.11994026 0.01488405 -0.23913974
0.04221888 0.06816067 -0.3945098
0.03445793 0.03866400 0.1335694
0.15597616 -0.06695385 -0.34890706
0.12547497 0.05816093 0.14074233
0.11837491 -0.09866684 0.20766494
-0.17438946 -0.06032652 0.16556902
0.08610014 0.11514195 0.03445671
-0.08555986 0.02204250 -0.07379096
-0.16847146 -0.04645222 0.18584567
0.06835738 0.00029987 0.37724954
0.09621061 -0.07502939 -0.32127145
0.06695544 0.08894378 -0.25739051
0.07908252 0.07794237 0.12473112
-0.04130465 -0.03849421 0.39255184
-0.02342323 0.06406182 -0.29898513
-0.04110178 0.03721524 0.13542423
-0.15955099 -0.01601264 -0.32194548
-0.11323229 -0.02859553 0.09948013
-0.05536428 0.03532666 -0.3083419
0.13617692 -0.02009518 0.17046985
0.04629631 -0.08041644 0.15826812
-0.02429326 -0.07805224 0.38488713
0.13474159 0.06484110 -0.16832599
-0.03333867 0.02987010 -0.22165372
0.110886 -0.04880518 -0.24210566
-0.14337129 -0.09578301 -0.32844169
0.16125511 0.03365103 -0.04710164
-0.1723284 0.06690033 0.0958461
-0.02634469 -0.00483600 0.16207276
0.15759467 0.06589718 -0.216026
0.05803496 0.06663714 -0.32114509
-0.1646717 -0.00691095 0.1538535
0.03315704 -0.03930396 -0.43930391
0.16582782 -0.07855496 -0.24052488
0.12698325 0.06059357 -0.31314792
0.08427983 -0.08041600 -0.12842457
-0.177495 -0.07743860 0.17483557
-0.03502184 -0.06719800 -0.00534467
0.12684436 0.05004101 -0.12188317
0.16613567 -0.02331020 0.23643137
0.09490355 0.04618649 0.14765495
-0.14949366 0.03204866 0.20596715
0.01742215 0.05290000 -0.29735342
-0.07744867 0.07068918 -0.27009672
0.04389733 -0.08126424 0.28603865
-0.11412967 0.00170430 0.10909017
0.17341788 -0.05296688 -0.3519787
-0.03938647 -0.02343304 -0.44445443
-0.02648162 0.06816681 -0.25299371
0.10153463 0.03708616 0.12266497
0.051989 0.03316641 -0.19273574
0.00101204 -0.02599694 0.1415032
-0.14565027 -0.08041600 0.03602193
0.10485514 -0.06719800 0.09176394
0.01563936 0.05135900 -0.17289637
0.07695233 -0.04850397 0.01199095
0.08014307 0.02045893 0.29297391
-0.13740634 -0.07486732 0.3923976
0.15390218 -0.07586609 -0.26072982
-0.1438849 0.03654741 0.25095944
0.13887486 -0.04694141 0.19070389
-0.08244382 -0.06992678 -0.3277656
0.09108209 0.08708775 -0.13624488
-0.06566919 -0.00051141 0.38728968
0.12084284 -0.00714238 0.28201947
-0.06371324 0.04416472 -0.07883608
-0.05831267 0.07170381 -0.42661687
-0.04485706 -0.01495817 -0.24199601
-0.14589014 -0.10679036 0.21744309
-0.18025608 -0.06858506 -0.29733713
0.15387102 -0.04806654 -0.26811297
0.13404849 0.06466362 -0.18890235
0.00101428 0.07063801 -0.35534328
0.02790557 -0.04499329 -0.07468404
-0.15121132 -0.01087096 0.25934871
-0.104634 -0.07549590 -0.30963745
0.15297855 -0.02715064 -0.26939647
0.08649682 -0.06719800 0.04230182
-0.08600967 -0.06310617 0.16768329
-0.13769574 0.00421522 -0.35087699
-0.115601 -0.06113314 -0.28333975
-0.03642062 0.06828675 -0.38176123
0.00629308 -0.08097016 0.24171812
0.1699609 0.00847261 -0.09566344
-0.13891296 -0.10233997 -0.30244025
0.05352355 0.05650997 0.15677468
-0.13550681 -0.06545629 -0.34109303
0.15553235 -0.00158225 -0.12698671
-0.12604243 -0.05604894 -0.00901322
-0.10027685 -0.07049279 -0.3536399
0.09438284 0.01228474 -0.0548701
-0.14172219 0.03597926 0.23877511
-0.05316836 -0.05473120 -0.00490601
-0.05979804 -0.05753247 -0.03007397
0.12459131 -0.05338748 0.38904968
-0.06620378 -0.06719800 -0.06188607
0.11770913 -0.05400359 0.08976283
0.14373275 0.05250171 -0.12342183
0.06874967 -0.07823575 0.36193927
0.107061 -0.00418612 0.18911732
-0.05365575 -0.00524144 -0.34831614
-0.01910483 -0.08024372 -0.22439971
-0.16401838 -0.02567292 0.35757928
-0.152219 -0.03550285 -0.29119414
0.05195592 -0.03333023 -0.04266971
0.13659041 0.04631414 0.22646764
-0.0534459 0.10815948 0.0737561
0.04738437 0.01921765 -0.18967615
-0.13864383 0.02365753 -0.12704497
-0.14519194 0.03119546 -0.42023827
0.04239467 0.06818735 -0.36590334
-0.06151772 0.07947488 -0.17255888
0.0606699 -0.03150100 0.28282561
0.15810306 -0.08133187 0.30620868
-0.14148234 0.05263654 0.00847056
0.17278233 0.02562203 0.21142868
-0.15598522 0.03602990 0.14807815
-0.12764416 -0.05776434 0.05260117
0.12828584 0.00587701 -0.2324081
0.05828089 0.01280421 0.13702424
0.107061 -0.07423548 0.17828627
-0.17072865 0.00638250 -0.0551982
-0.1421333 -0.02940265 -0.1146928
0.178111 -0.03539206 -0.2898797
-0.03673104 -0.01981621 -0.44599047
-0.12448448 -0.08041600 0.04594914
-0.15505902 -0.00761100 -0.12439197
0.08235945 0.06030543 -0.34615481
-0.1738906 0.06523334 -0.35356078
0.05175874 -0.00036128 -0.33344897
-0.16365699 -0.01331706 -0.30112555
0.00686856 -0.02516000 -0.1968507
0.12808483 -0.10404033 0.24728265
0.08677539 -0.08041600 -0.16494096
0.14130657 0.04659721 0.25487815
0.11202522 -0.08041600 -0.1585006
-0.16600851 -0.02003455 0.26261789
0.05037015 0.05147244 0.18227788
0.14554967 0.04015659 0.13047395
-0.00834561 -0.07923026 -0.26579951
-0.11991142 -0.08041600 -0.14425355
0.06639684 0.03963800 0.13591414
0.1822079 -0.08071029 -0.32954137
0.051989 0.03924666 -0.18829943
0.00590578 -0.02069475 -0.32483101
-0.11727399 0.01414359 0.12294021
0.11281179 0.03169005 0.05726719
0.11546558 0.07563256 0.09791625
0.11979946 -0.00835853 0.03746261
-0.05886621 0.01705959 -0.09704145
-0.03973736 0.01925980 -0.19305145
0.09122045 0.03341706 0.28780576
0.117917 0.03242541 0.23047415
-0.19301829 -0.09108204 -0.2605308
-0.08606037 0.09703118 -0.1812584
-0.16706659 0.00519203 -0.35902117
0.16199284 -0.07217626 0.35135925
-0.00908519 -0.07529404 -0.33364434
0.1763918 -0.04561290 -0.36748601
-0.18202222 -0.09391068 -0.30648724
-0.111776 0.01116082 0.25766239
-0.11938582 -0.03556790 0.38477507
-0.06523922 -0.01771028 -0.31344192
-0.05865944 0.09113985 -0.07707375
-0.00974694 0.07925695 -0.23990979
-0.03192723 0.01979599 -0.18624207
-0.16787885 -0.08041600 -0.1410486
0.15779189 -0.08041600 -0.00891327
-0.03250891 -0.02516000 -0.17754439
-0.02781183 -0.06920188 -0.37282254
0.02832674 0.02793022 -0.33241258
0.086228 0.04532509 -0.07775684
0.02107618 0.03572081 0.28913681
-0.06875923 -0.07682269 -0.2898777
-0.09282498 0.08849854 -0.12260386
0.08628838 -0.04279924 -0.00049935
0.02551383 0.01911490 -0.24043041
-0.1930321 0.03163779 -0.2623613
-0.09464979 0.09436276 -0.21116452
-0.01272466 -0.01789073 0.01689944
0.02727787 0.06942960 -0.42331766
-0.135158 0.03480951 -0.29977069
0.10629643 0.07567502 -0.11329938
0.17060665 0.02745196 0.1794004
-0.056702 0.01289222 -0.1902748
-0.16690278 -0.06990508 0.18446027
0.1209566 -0.05486233 0.28319266
0.13864721 -0.08041600 -0.04544749
-0.02863509 -0.03418352 0.42366209
-0.09103295 0.03370572 0.25875035
0.0416169 0.04609953 -0.21141834
0.139084 -0.06382303 0.23069156
-0.1052027 0.10671681 0.03618586
-0.15140425 -0.05261312 0.3710773
-0.05247016 0.02402531 -0.17045499
0.17416868 0.00323495 0.29292189
-0.00264076 0.06566800 -0.29797238
-0.09412341 0.05505861 -0.36024115
0.11211116 -0.02098354 -0.08648875
-0.15423451 0.04641304 -0.11883669
0.15686342 0.03876783 0.17209359
-0.10852962 -0.01112808 0.06716605
-0.11490578 -0.02825863 0.13383169
-0.16845106 -0.04824948 -0.35815397
-0.16373767 -0.04796756 0.30660676
0.1338903 -0.05155824 0.30514199
0.04324885 -0.07815422 -0.27047552
0.11703643 0.01390453 -0.01183422
-0.15693231 -0.04147934 0.17393454
0.10802849 0.04088516 -0.03150484
-0.16617621 -0.05462794 0.27331627
-0.10115984 -0.02847232 0.178857
0.0538432 -0.08041600 0.01677386
0.13781627 -0.07124136 -0.21783244
0.00976633 -0.07935205 -0.2608244
-0.05181092 0.05010208 -0.24132458
-0.11894376 -0.00365182 -0.43260129
-0.1458827 0.07067405 -0.3722126
0.17349219 -0.04804526 -0.36716581
-0.17032361 -0.01950631 0.15319928
-0.09401675 -0.00481510 0.14454794
-0.04524867 -0.08117744 0.27295644
-0.13877738 0.01609254 -0.33006093
-0.123622 -0.06315397 0.29195812
-0.15460944 0.04640863 0.18151299
-0.19078764 0.03339244 -0.282193
0.12346289 0.03967946 0.21666606
0.01710016 0.06497658 -0.32148355
0.15801028 -0.01306208 0.24143078
-0.111776 -0.01699180 0.26148193
0.11947448 0.05398879 -0.05127009
-0.17744021 -0.06024050 -0.1669026
-0.08018732 -0.05640642 -0.01671974
0.07614208 -0.08041600 0.07205379
0.05139054 0.05993954 -0.30291285
-0.07845069 0.04282422 -0.08307773
0.10782744 0.06757062 -0.27048893
-0.16083908 0.03290494 -0.25743156
-0.13871486 -0.05885628 0.04159887
-0.15955099 -0.05545586 -0.32519343
0.10459741 -0.08041600 0.02174953
-0.14913641 -0.02448356 -0.35299442
-0.13233891 -0.05803265 0.08431832
0.117917 0.02042373 0.26993759
-0.07378852 -0.03150100 0.33869063
0.15302007 -0.03979962 -0.23561623
-0.16292708 0.03568153 0.00579486
0.0278095 0.01884160 -0.17274243
-0.15847467 -0.04135088 -0.11180524
-0.09564903 0.09762794 0.07643123
-0.14671035 0.01100151 -0.34567052
0.18686922 0.03887362 -0.3161715
-0.00990644 0.06821049 -0.37992216
-0.16206772 -0.07189773 -0.00788502
-0.13194506 -0.07960724 0.34287787
-0.06074883 -0.08041600 0.08318276
-0.02135839 0.03244319 -0.10130868
-0.05132992 0.04409342 -0.23539002
0.06319709 -0.00118411 0.13619697
-0.04021542 -0.08041600 0.02325422
0.12946797 0.01527341 -0.11783849
-0.0545203 0.03548526 0.13064609
0.11192235 0.01103288 0.11652242
-0.01949891 -0.08041600 -0.20875831
0.0930912 -0.07790772 0.3651575
0.110886 -0.05832821 -0.3676183
-0.17645845 -0.04454202 -0.35158456
-0.17610676 -0.03075579 -0.27425153
-0.17168873 -0.04752087 -0.29854925
0.0788967 -0.08041600 -0.03812759
0.00332657 0.02629912 0.12247046
0.0926047 0.06505230 -0.31036762
-0.18418312 0.03917171 -0.31386331
-0.16202345 -0.02930096 0.25348239
0.05905873 -0.05643326 -0.03975331
-0.05274351 -0.06719800 0.06655217
0.05779702 0.08011736 -0.28569049
0.01749631 -0.08037096 -0.21920194
-0.08473134 0.00188542 0.2937604
-0.115601 0.02320927 -0.30399185
-0.13328091 -0.01498614 0.14246998
-0.0281948 0.07848909 -0.17045499
0.0192212 0.03424813 -0.34772957
0.01372526 -0.00024999 -0.24199601
0.04020461 0.04929941 -0.18138225
0.08922706 -0.06719800 0.08751238
-0.15314561 -0.07601414 -0.23857522
-0.09749981 0.02253403 0.30829489
-0.056702 0.02604704 -0.23856428
0.09819906 0.10015607 0.06269508
0.11645788 -0.02413554 -0.22147341
0.02163171 0.05978111 -0.17572226
0.03221765 0.03698515 -0.33334996
0.17493898 -0.05050366 -0.36647543
-0.17726267 0.02641350 -0.29211379
-0.09165453 0.03029431 0.12767984
-0.04599786 0.07132799 -0.34672629
-0.15773081 -0.09265578 0.23876587
-0.12221581 -0.05579201 0.0522027
-0.15799001 -0.09557783 -0.26237254
-0.107042 -0.04041415 0.14959772
0.1466554 -0.03790747 0.1896803
0.107061 -0.06894001 0.29327406
0.16574342 0.05928738 -0.20129616
0.01293139 -0.01492580 -0.17027728
-0.16833667 -0.07591564 0.31813503
0.110886 -0.02845087 -0.2640507
-0.04766624 -0.06719800 0.00575974
0.07017591 -0.02137847 0.23131165
-0.14193622 -0.02703281 0.17416999
0.110886 -0.05272475 -0.36748884
-0.12064648 0.06444993 -0.37096201
0.12174001 0.06160553 -0.28023212
0.14641701 -0.03151154 0.221791
0.05970402 -0.02668552 0.360154
0.16148721 0.02705399 0.2161536
-0.12237398 0.04088710 -0.10365092
-0.18003673 -0.07432196 0.28590411
-0.09382372 0.00841249 0.23694022
-0.1318275 0.03853059 0.2358956
-0.09110653 -0.00632386 0.25392028
0.02885296 0.04106605 -0.0670377
0.01794421 -0.08041600 -0.03979358
0.13956045 0.00014254 0.17852298
0.12221792 -0.05690725 0.07241547
0.13026245 0.07038139 -0.17328902
0.051989 -0.02123633 -0.18634744
-0.15192887 -0.06319121 -0.01009257
-0.16726138 -0.10385294 -0.29647558
0.13455878 -0.08041600 -0.12666403
0.10669601 0.01898881 0.30699222
-0.0880816 -0.01272855 -0.05744792
0.08500959 0.01966848 -0.07100419
-0.15766179 -0.03755589 0.29217926
0.01861929 0.03651610 -0.10243845
-0.1180638 -0.05565238 0.06020769
0.08455713 0.03827967 0.10021704
0.10464252 0.06008110 0.14821073
0.00024303 -0.07959559 -0.2508757
0.15730352 -0.08189718 -0.34822046
0.00125102 0.06246942 -0.20820973
-0.1511451 -0.01456896 -0.25599918
-0.16121028 -0.06990700 -0.34172602
0.11617626 -0.05476850 0.07700148
0.04909288 0.07995332 0.13086558
0.16412528 -0.03931435 -0.04508001
-0.01994569 -0.06719800 0.03336738
-0.16570491 -0.05515968 0.29193223
0.18599803 0.04099766 -0.28353681
0.0264144 0.05011200 -0.18922951
-0.10520238 -0.07683914 0.39480916
0.12006244 0.03345120 0.12203395
0.06700982 -0.08041600 -0.10753072
0.06484069 -0.08041600 0.13605219
0.0143112 0.04477345 0.19881265
0.07539901 0.09115988 -0.20226836
0.08012748 -0.08041600 0.11474963
0.01984855 0.05288820 -0.27740627
-0.15498709 0.02361257 -0.24532059
0.16104578 -0.08041600 0.02197304
-0.13830626 -0.09590333 -0.26590829
0.11826145 0.03750083 0.23234378
0.09970513 -0.01129088 -0.00547138
-0.12898513 -0.04589361 -0.07264069
0.05983586 0.03256700 0.23240904
-0.18295202 -0.00338233 -0.34173513
0.17496636 0.01440401 0.28395259
0.10480705 -0.00197514 -0.43587101
-0.13054057 0.04322660 0.23696742
-0.14106987 0.05933461 -0.12637813
-0.14851375 -0.03200053 0.24034834
-0.17220448 0.03050968 -0.04663748
-0.01820399 -0.04561859 -0.00011151
-0.16783197 -0.03671311 -0.00503553
0.107061 -0.06191022 0.2227896
0.04100929 -0.00608722 -0.35321577
-0.16905955 0.04342583 -0.15208969
-0.13274069 -0.07631463 0.31803384
0.06774463 -0.08039977 -0.21774324
-0.14887535 0.03691975 0.29286544
-0.10017407 -0.04541169 0.01613025
-0.09320244 -0.08049515 0.17013009
-0.156325 -0.03802377 -0.27091992
-0.1876697 0.00603958 -0.36676108
-0.18694046 0.02734284 -0.31586713
0.16824701 0.07008894 -0.31366896
-0.17374015 0.03282989 -0.33397627
0.12915837 -0.07711315 0.37557377
-0.03342054 -0.06499197 0.39950926
-0.14382325 0.01438400 0.32876946
0.102327 -0.06620561 0.14126163
-0.02635395 0.06324940 0.16637105
-0.09130734 -0.01012061 0.25266593
-0.08575646 -0.06148911 0.40748586
-0.03258779 -0.06323617 0.04565229
0.13099446 -0.10020732 0.25790133
0.09972883 -0.05168156 -0.405272
0.13979069 -0.06873482 0.27487664
0.14046241 0.06548873 -0.23901799
0.129108 -0.03188822 0.19596975
0.019617 -0.02395429 0.17773134
-0.0457076 -0.00838395 -0.28230301
-0.12992183 0.00713361 0.3623704
0.08020199 -0.04627557 0.02181738
-0.16483426 -0.04268301 -0.2234383
0.03540425 0.02935779 -0.22923
-0.059143 -0.06473183 -0.35367886
0.03749154 0.05376200 -0.30193563
-0.14378365 0.05062026 0.03274138
-0.13397124 0.02891911 0.26425289
-0.01280368 0.06374753 -0.18048443
-0.14531323 -0.02808387 0.21704797
-0.12627444 0.03890205 0.26048114
-0.03995417 -0.08100862 0.2475138
-0.01908989 0.08903571 -0.18343362
-0.13859425 -0.00674040 0.18038559
0.15323666 -0.08041600 -0.18095343
0.0278937 -0.01567819 -0.05668276
-0.13791857 0.01210491 0.34075675
0.06354653 -0.06719800 0.03478735
-0.19175395 -0.01705024 -0.35548294
0.04647482 -0.02516000 -0.28745808
0.05504222 -0.07068237 -0.42069947
0.139084 -0.04753385 0.252531
0.01839516 0.04217477 -0.34400695
-0.12673948 -0.09437617 0.19304581
-0.0182631 0.03947219 -0.32768792
0.11302865 0.04416754 0.18085301
-0.11467256 0.08158890 -0.15579861
0.01702823 -0.07543136 -0.33069046
-0.0136162 0.02516207 -0.33113575
-0.09485603 -0.02563473 0.23048815
-0.16902718 -0.07451012 -0.23742097
-0.01360852 0.03300154 -0.34026415
0.06510283 -0.03150100 0.25136888
-0.08466226 0.09898366 -0.12458495
-0.16903994 -0.07739513 -0.1081598
0.08072677 -0.08095606 0.31554764
0.15937644 -0.06337698 -0.11079903
-0.09902401 -0.07604879 -0.31084978
0.12556305 -0.03988126 -0.21971238
0.08558356 -0.07871222 -0.25894531
-0.0458741 -0.04841345 0.05572845
0.06370855 -0.06719800 0.14695277
-0.0146775 -0.01035925 -0.35937635
-0.14502508 -0.00453165 0.26691235
-0.15637341 -0.06801967 0.29074185
0.07143938 0.06614500 -0.20343655
-0.16981147 0.03740705 -0.40413645
0.03584358 0.01676723 -0.21200167
0.11904901 0.01057893 0.0472817
-0.171038 -0.05229224 0.238237
-0.06537579 0.00721009 -0.31301945
0.05117594 -0.00803276 -0.33183309
0.10412065 0.03517361 0.28787551
0.18100269 0.05623724 -0.33233161
0.11209683 0.00493210 0.13839815
-0.15417456 -0.08041600 -0.09539436
-0.03516974 0.03256700 0.23171637
0.15790159 -0.05902625 0.29842069
-0.15955099 -0.00392736 -0.32287715
0.16004412 -0.09679141 -0.26530224
-0.01684444 0.02833353 -0.35918639
0.0788704 -0.07711166 0.39662635
-0.164426 -0.07077332 0.18835414
-0.06645997 0.06671892 -0.17672465
-0.0507385 0.01550962 -0.2154465
0.18722133 0.04552660 -0.28722935
-0.00118531 0.01534064 0.35469523
0.06376777 0.01016837 0.13611668
-0.04413021 0.02933100 -0.22747953
-0.12768319 0.03156076 0.25757979
-0.111776 0.00851717 0.21604507
-0.00501104 0.04335300 -0.27167359
-0.04484026 -0.06719800 0.14146302
0.1650088 0.05140819 -0.17311974
-0.14496904 -0.08054735 -0.26155481
0.06565964 0.09651942 0.092012
0.04193441 0.04547207 -0.10492273
0.07378743 0.02428152 -0.09904473
-0.15633314 -0.00768444 -0.2349115
0.16089232 -0.09220948 0.24175865
-0.15643961 -0.00985569 -0.34959974
-0.175961 0.00903239 -0.25063638
0.04854708 -0.01267604 -0.33783725
-0.14793581 0.04765720 0.0120957
-0.0013447 0.06775500 -0.40610808
-0.02262971 0.02906952 -0.18839509
0.102327 -0.04828012 0.14830184
-0.14189414 -0.05876359 0.05223885
-0.03326154 0.02348695 -0.21611622
0.1365797 -0.08041600 0.06077063
0.01956644 0.04156938 -0.20432316
-0.07555307 0.04853415 -0.08469582
-0.16473952 0.00094088 0.1805703
-0.05079476 0.05290000 -0.30406966
0.12429508 -0.01538546 -0.08989606
-0.115601 -0.04005813 -0.32241623
0.10911886 -0.00350295 0.13415111
0.02895877 -0.07791679 0.38727863
-0.09369931 -0.03779048 0.01842767
0.01333057 -0.03150100 0.29328156
-0.1545586 -0.10387817 -0.29628372
-0.00050669 0.12390616 0.04202212
-0.16253274 -0.03664419 -0.11452613
-0.135876 -0.09510367 -0.32238395
0.00317291 0.06525023 -0.14699649
0.13841478 -0.08039549 -0.26664613
-0.07729583 0.06544749 -0.13922012
0.14121341 -0.04849393 0.17449942
0.09230632 -0.02236152 -0.03072193
-0.16614105 -0.01595612 -0.41545761
0.13914167 -0.04823324 0.38191945
0.16009067 -0.04038358 -0.3681744
0.06892212 -0.08007011 0.33674377
-0.111776 -0.00961270 0.28147469
-0.15955099 -0.05073477 -0.27275626
-0.15818376 -0.08041600 -0.08003683
0.18314728 0.04244715 -0.34869226
-0.14763787 -0.08041600 0.02975669
-0.14358715 0.05599275 -0.02219577
0.02751395 0.03718829 -0.34276369
-0.01619256 0.01749882 -0.09716329
-0.01012977 0.06530983 -0.22504315
-0.14691018 -0.08041600 -0.17259458
0.075077 0.04453268 0.19956161
-0.17741564 -0.05422965 -0.27393004
0.15906077 -0.04850902 -0.35382539
-0.1821664 0.02032775 -0.24397192
-0.08513434 -0.04141059 -0.4103314
-0.09167034 -0.08041600 -0.17716261
0.03940265 0.01755405 -0.35374794
0.11853356 -0.07447939 0.1740677
0.12816532 -0.07067976 -0.21786611
-0.00671946 0.01863734 -0.32483101
0.188703 -0.03449502 -0.3641717
0.06809643 0.03256700 0.22206551
-0.10664587 0.01354823 0.33734859
-0.18180525 0.05780659 -0.35585935
0.15328804 0.03924114 -0.31334958
-0.06460836 -0.07934372 -0.24250854
-0.14314099 -0.04463455 -0.23625297
-0.00521177 -0.08041600 -0.16060018
-0.04111702 0.00782082 -0.35458627
0.14526005 -0.03408295 0.13819063
0.08938211 0.09507216 -0.20953153
-0.15161401 -0.05428341 -0.21884902
0.01790406 0.04193320 -0.07425918
-0.16482345 -0.04733980 -0.29138332
-0.03220459 0.04660348 -0.06905193
0.16644242 -0.05405870 0.10945713
0.13390038 -0.06393541 0.17772189
-0.18219857 -0.04058542 -0.30489473
-0.04257856 -0.02516000 -0.19733904
-0.11757432 0.04731160 -0.02966406
0.16327564 -0.00477861 -0.22703908
-0.08412352 -0.08041600 0.0735883
-0.03947259 -0.01678692 -0.4460728
-0.07551011 -0.01858872 0.23120556
-0.05988703 0.08317722 -0.20807112
-0.111776 -0.05477440 0.23576254
-0.04823957 0.12281992 0.03811563
-0.0938028 -0.06719800 -0.03790597
0.03695668 -0.07007514 -0.34441912
0.02866015 -0.01476985 -0.18510707
-0.14837956 -0.00913765 -0.12297007
-0.08101916 0.04398701 0.16924444
0.02761518 -0.02516000 -0.19012207
-0.13660332 -0.03002225 0.39538667
0.10373868 0.01030660 0.35833712
-0.11383568 0.03719245 0.12605972
0.1716893 -0.02929318 -0.22081201
-0.1261543 -0.05681294 0.28777032
-0.1271062 -0.03891021 0.1364625
0.09401531 0.11439888 0.01510642
-0.04847852 -0.04986744 0.00715893
0.15498619 -0.08041600 0.00941687
0.14572166 -0.00638214 0.1709261
-0.111776 -0.06246555 0.28051204
0.00457427 0.06038823 -0.21199879
-0.02473301 0.06120805 -0.28990757
0.13887107 -0.08041600 -0.17376419
-0.15973729 -0.07089237 -0.1068501
-0.1670574 -0.04180917 -0.267914
0.18018797 -0.03227193 -0.35668512
0.12493319 -0.08283885 0.25890498
0.024815 -0.00918127 -0.30413856
-0.17010391 -0.06377120 0.07746012
0.03166739 -0.06719800 0.02076412
0.01351663 -0.04896032 0.00021603
-0.0529681 -0.01860899 0.23460122
0.05139409 0.03993394 -0.31989355
-0.09372969 -0.07873770 -0.25832358
0.18167112 0.05638186 -0.29087161
0.1723329 -0.09665931 0.23783622
-0.12921077 0.04125837 0.27489317
-0.1603165 -0.01660289 -0.2950451
0.06379313 0.06614500 -0.28614287
-0.056702 0.01976361 -0.24022245
-0.12990742 -0.10371531 0.26028181
0.01413004 -0.06410592 0.01423058
0.13316566 -0.05792407 0.0879395
0.12575772 0.03379902 -0.11444918
0.02831438 -0.04910189 0.40488976
0.17891317 0.03497041 -0.29713115
0.15240064 0.00628297 -0.30853954
-0.14370195 -0.08041600 0.09737596
0.15308892 -0.09306216 0.22504732
-0.07372562 -0.08041600 0.09406672
-0.08654596 -0.02395537 -0.42160007
0.16172267 -0.09091205 -0.33670001
0.01676187 0.05135900 -0.19380326
-0.123622 -0.07225595 0.18830576
-0.12974869 0.04573041 0.17672983
0.01814715 0.03728977 -0.10265306
0.02867094 -0.02500775 -0.19080258
0.14689564 0.00087108 0.17016714
-0.11689956 0.01993757 -0.43413477
-0.10047713 -0.06777101 0.39215152
0.08657128 -0.00039976 -0.04825742
-0.0119847 0.02441900 -0.18973265
0.01865618 0.04286406 -0.32482622
-0.18417891 0.04043717 -0.37470217
-0.11630012 -0.00961308 0.02788112
0.08431374 -0.06859345 0.39341204
-0.02882027 0.09258869 0.11211923
-0.02959295 -0.00956241 -0.35731226
-0.08978985 0.08566896 0.10582289
-0.15875614 0.00360001 0.34951482
0.01400385 0.02441900 -0.20523816
0.06906022 0.02252587 0.32346978
0.07741274 0.04998707 0.13582782
-0.12119731 0.00260295 0.07365517
-0.13261001 -0.08041600 -0.09102546
-0.05444663 0.05633266 -0.07079978
0.00559308 0.07881820 0.13960811
0.12644956 -0.00768290 0.33821273
-0.00156087 0.06762765 -0.42029292
0.00289394 -0.00033125 -0.06994201
0.01456609 -0.06224148 0.07879064
-0.18964762 0.04065443 -0.24478446
0.09530743 -0.03530550 0.39517727
-0.06304389 0.08625512 0.11611696
-0.07991972 -0.04615613 -0.42146673
-0.059567 0.03826131 -0.33012445
-0.056702 0.06033978 -0.22424835
0.01662555 0.10288872 0.09208657
0.17313186 -0.00657464 0.16711222
-0.14322258 -0.02817962 0.2610232
-0.1752934 -0.10209462 -0.28147631
0.04923267 0.08790400 -0.19000199
-0.05333649 0.07723750 -0.26710257
0.12239976 0.00160481 0.144596
0.10307513 -0.08083697 0.22164539
-0.02624684 -0.03150100 0.30239681
0.1570331 -0.08033427 0.26758151
-0.18185816 0.00637627 -0.32979221
-0.12895594 -0.08002859 0.31952337
0.14641701 -0.04458215 0.23596858
-0.00407606 0.05503602 -0.22218539
-0.14801601 -0.00097312 0.22444189
-0.06106436 -0.03150100 0.32786466
-0.06904027 -0.00483600 0.14812744
-0.02427641 -0.07824622 0.38000807
-0.12115177 -0.00852517 0.34137668
-0.15931962 -0.01381473 -0.36719635
-0.04119936 -0.08041600 -0.0268184
-0.04761166 -0.02516000 -0.3113101
0.1660208 -0.08900110 0.18359007
-0.02700913 0.03979335 -0.218494
0.16330441 -0.02253039 -0.07119099
-0.05542893 0.05079928 -0.31851236
-0.01060468 0.06593592 -0.27019059
0.02983167 -0.08063649 0.32319334
0.17781588 0.02399077 -0.17417003
-0.1325842 0.04002409 -0.28375205
-0.17528042 -0.09092891 -0.29925258
-0.07769135 0.00153108 0.38096687
0.02617219 -0.00483600 0.16545132
-0.01649212 0.07530716 -0.27822053
-0.0815929 -0.08101044 0.24778836
0.14201701 -0.01247069 0.24702743
0.00144928 0.04947189 -0.26121753
-0.00604586 0.01270631 -0.07473804
-0.111776 0.00935229 0.2537612
-0.135158 0.03000276 -0.27462141
-0.14526144 -0.08041600 -0.01277716
-0.01360178 0.04165801 -0.34716033
-0.02634369 0.02049554 -0.35792524
-0.02975909 -0.07552133 0.42591525
-0.07615585 0.06196759 -0.4277652
0.01785606 -0.06107451 0.04096941
0.10995295 -0.04109715 0.10444455
-0.1398756 -0.05912200 -0.00630191
0.14379191 0.04394323 0.25001868
-0.12809945 0.07723348 -0.18400602
0.15165267 -0.08378101 -0.27481878
0.03732436 -0.06266352 -0.0439279
0.17281353 -0.01720964 -0.14510432
0.02491489 0.03634773 0.28652957
0.16469946 0.02709739 0.24384417
0.16687189 0.02285640 0.28513301
-0.06097755 -0.03812793 -0.41764735
0.06115691 0.05861093 -0.08513888
0.00190373 0.07757375 -0.25634755
-0.08024452 -0.04621308 -0.03799425
0.16195817 0.04283366 -0.2883969
0.18456004 -0.05603271 -0.22752269
0.15853624 0.01630720 0.17523209
-0.01083551 0.05923381 -0.26675568
0.107061 0.00869275 0.21213229
-0.12906068 -0.10461049 0.25812078
0.04879281 0.07294168 -0.29278122
-0.14725096 -0.06111057 -0.05016916
-0.14112869 -0.08041600 -0.00278808
0.14231101 -0.01024657 0.26138826
0.04319857 -0.08041600 0.11401202
-0.16436726 -0.02746971 -0.11891246
-0.115601 -0.04623893 -0.29995706
-0.16603324 0.02209960 -0.24622122
0.09588284 -0.08041600 -0.16405549
0.08572159 0.00654390 -0.05496174
-0.19007778 0.03899643 -0.27614997
-0.01649761 -0.08068717 0.19906858
-0.04892863 0.00577026 0.23512627
-0.07489194 0.08402455 -0.2143476
-0.09096158 -0.03714798 0.37838662
-0.11087197 -0.01192265 0.09205303
-0.12099558 -0.06109308 -0.00363873
0.06977019 -0.03150100 0.32016173
0.12670069 0.05344810 -0.12268427
0.165333 -0.02656167 0.21660371
0.15821166 0.00363447 -0.3609646
-0.15191836 -0.03022679 0.16119209
-0.0112557 0.05135900 -0.20562282
0.18658022 0.04470689 -0.27424587
-0.08170919 -0.01738795 -0.08748613
-0.16906213 0.02895811 0.16299371
0.1654705 -0.03331072 -0.10319606
-0.16739815 -0.07051971 0.09214759
0.01937943 -0.02797384 0.23710624
-0.06721915 0.05129958 -0.42632136
-0.07358268 -0.08041600 -0.20679075
0.0761634 0.00158084 -0.09274784
0.16049789 -0.06531136 0.03683539
-0.05569353 -0.06719800 0.14790282
0.0354439 -0.04300297 -0.07567227
0.02969018 -0.03902909 0.178857
-0.17459175 0.00298235 -0.35182284
-0.1652607 -0.07509736 0.10294491
-0.09456205 0.02266868 0.22739121
-0.11373207 -0.08079742 0.31934309
0.00219255 -0.08084461 0.22279604
0.02853112 0.02441900 -0.23628994
-0.16779182 -0.07582357 0.23251235
0.05807066 -0.05721576 -0.03541472
0.00719617 0.03245689 -0.18774999
0.17869433 -0.01697789 -0.34340746
-0.01573945 -0.08041600 -0.21361057
0.1702417 0.00274206 -0.10743381
0.14430242 0.04683526 -0.03391756
-0.1780401 0.01061601 0.28699454
0.04908702 0.04585426 -0.21542668
0.18231288 0.02632857 -0.20267846
-0.05186545 -0.08041600 -0.14681625
0.17615138 -0.00607278 0.2939573
0.13108368 0.06296687 -0.28250728
-0.05622594 0.05424393 -0.07255565
-0.05200823 0.05666451 -0.12321095
-0.17552668 -0.01772646 -0.36825195
-0.17028804 -0.06641946 0.10107145
0.15297137 0.07309063 -0.25489805
-0.00130436 -0.08039315 -0.21829556
0.11198394 -0.04329845 -0.0127559
0.0528813 -0.00115385 -0.06943019
0.18139 -0.03323448 -0.31443331
-0.16946793 -0.02720176 0.29469025
-0.16470585 -0.03951555 -0.36828867
-0.12810684 -0.03369231 0.17653392
0.06556517 0.10907060 -0.13340184
-0.16315413 0.01842914 0.31055108
0.188703 -0.07150701 -0.34716477
0.01598852 0.05270797 -0.43402233
-0.111776 -0.05891282 0.29401079
-0.02953 0.00811908 -0.31948879
0.12296784 0.06003560 -0.07188897
-0.09992957 -0.05997000 0.38051445
0.0519326 -0.08103843 0.25200734
-0.1111724 0.05072787 -0.07676824
0.12781091 -0.05818642 0.07919032
0.05100717 0.12074212 0.02877214
-0.19178809 0.05068908 0.09330422
0.02971956 -0.08041600 0.03293743
0.08068352 -0.06719800 0.07576273
0.17804942 -0.07968811 -0.28093056
0.14471718 -0.06196024 -0.03300395
0.01459797 -0.05219992 0.06684049
-0.09383567 -0.08136712 0.30154384
0.16320651 -0.06393947 -0.40394046
-0.18742071 0.03813268 -0.22044434
-0.04197272 0.03437623 -0.08189659
-0.1016744 -0.08041600 -0.13225574
0.051989 0.04558743 -0.21688444
0.1205178 -0.07725238 0.28638181
-0.0960974 0.07247917 -0.2915549
0.07938608 -0.07468674 -0.30844376
-0.04363534 0.05912638 -0.07165514
0.06952621 -0.03854755 -0.43379971
-0.06206093 -0.08041600 -0.03231062
-0.15978117 -0.08809256 0.20355222
-0.00198707 0.02871800 -0.31078807
-0.15375736 0.07536065 -0.32400837
-0.05620597 -0.00250182 0.13922749
0.06828963 0.07257796 -0.3192233
-0.09610655 0.00293183 0.12934468
0.01719163 0.06593690 -0.19956352
0.17192656 0.04188052 -0.28115652
0.1171338 0.00755444 0.30717489
-0.07259566 0.04472251 0.20357615
0.07035508 -0.07040378 0.41142802
-0.111776 -0.07311055 0.23875871
0.13380853 0.03086488 -0.29843572
0.13304768 0.02942594 -0.28194105
0.10738288 0.07661796 -0.11792395
-0.17382378 0.05752203 -0.20803111
-0.0074118 -0.07673337 -0.31359297
0.03035158 0.05219452 0.13613272
0.13693 -0.01897520 0.19302864
-0.16365699 -0.02969835 -0.28902099
-0.04864677 -0.08041600 -0.05443926
-0.13216633 -0.05252463 -0.09250063
-0.14282315 -0.04742146 -0.21926037
-0.05055286 -0.02516000 -0.20986571
-0.04506789 0.02005092 -0.3434459
0.14261411 -0.08041600 -0.0072165
0.01037675 0.06791628 -0.38633779
-0.11482069 -0.07989432 -0.23766681
-0.16504349 -0.06424334 0.01267904
0.04271253 -0.05569823 -0.39267935
0.10598439 -0.02305844 -0.06019228
-0.15955099 0.00502584 -0.29323354
0.17530537 -0.01648893 -0.32045829
0.08524619 -0.08041600 0.00140061
0.07038137 0.06082102 -0.07125524
-0.1604709 0.02973737 0.23717624
0.14317497 -0.00923213 -0.36541885
0.13811098 0.06471823 -0.28725096
-0.12697828 -0.04077762 0.29175511
-0.17953257 0.05445880 -0.22363529
-0.111776 0.01003067 0.2571655
0.03881279 0.02005407 -0.17045499
-0.11999434 -0.05271604 0.10917533
0.01675321 -0.00670234 -0.24199601
0.13796765 0.01124175 -0.23641757
0.107061 -0.06797653 0.16732862
-0.17531929 0.02597291 -0.02861427
0.14090914 -0.02454798 0.14046718
0.04464699 0.02065493 0.33453876
0.09479403 0.04638611 0.14416754
0.07038723 -0.02338992 -0.04672712
-0.0661664 0.07037987 -0.34880097
-0.0029263 -0.00664270 0.15891189
0.08550098 0.01654563 0.22830235
0.16354112 -0.03343977 0.30477516
-0.08366705 0.06024458 0.15844327
0.11304657 -0.03964007 -0.04679616
0.14942801 -0.09239632 0.18801514
-0.00630464 0.11161705 0.07460559
0.15477689 -0.07047698 -0.33724069
0.16055418 -0.02511206 0.15273367
-0.13575116 0.02481348 0.31381866
-0.16349256 -0.06136085 -0.04716466
-0.1503399 0.00532516 -0.25024832
0.16001956 -0.07258499 -0.38076093
-0.15242928 0.02927864 -0.2808212
0.14141622 0.03667077 0.22666536
0.1442412 -0.02360283 0.16202896
-0.115601 -0.04521742 -0.29591822
0.02164099 -0.03202597 0.42576597
-0.14196156 -0.05899658 0.02549494
0.131027 0.00147090 0.28078765
0.17200114 0.01386334 -0.29790014
0.160395 0.03339523 -0.099861
0.05520621 0.08267928 -0.20787694
-0.17751061 -0.03944840 -0.26960825
-0.0336416 0.04727656 0.22223569
0.0131887 0.06244074 -0.27180597
-0.15701832 -0.08041600 0.11715551
-0.08423586 0.00133515 0.37776236
-0.07739695 0.09147225 -0.22222862
0.06564463 0.05646178 -0.12259807
-0.15864469 -0.05651424 -0.2408008
0.06995632 -0.08041600 0.11016506
0.054428 -0.06810942 -0.38332897
-0.115601 -0.05026331 -0.30007746
-0.10619158 -0.07908448 -0.2579426
0.03453696 -0.07573735 0.42368172
-0.03307504 -0.03170721 0.42548672
0.04892269 0.01366354 0.12079205
0.110886 0.00393980 -0.31079688
-0.08173832 -0.07674617 0.40918533
-0.16590012 -0.01203713 0.05449994
-0.10750859 -0.08058761 0.32436286
0.03736939 0.02634673 -0.20968476
0.13213622 -0.08298162 -0.26472705
-0.16560112 0.04485723 0.24382779
-0.00011543 0.05103446 0.18872224
0.01777346 0.02896887 -0.44081379
-0.14334897 -0.06751678 0.28621021
0.1427987 -0.09081359 -0.30013167
0.15214362 -0.00981826 -0.35306133
-0.17410779 0.02090677 0.16629709
-0.135158 0.00466068 -0.24901698
0.12347782 0.04305902 0.05186465
-0.16797792 0.04477781 -0.15280195
-0.18489773 0.00080860 -0.18367223
0.14753977 -0.01946247 -0.23897661
-0.05426999 -0.04079037 -0.0403835
-0.168653 -0.00497080 -0.22677953
-0.04762315 0.05290000 -0.31620787
0.107061 -0.04989845 0.20930539
0.10056059 -0.07691980 0.39198769
-0.03601153 0.00656723 -0.3559548
-0.11725235 0.07957368 0.1028166
-0.060071 -0.06740031 -0.40205562
-0.0220319 0.02126655 -0.35855611
0.17372219 0.02535338 0.27890315
0.117917 0.02981491 0.23658926
-0.1070001 -0.04120827 -0.40491989
-0.04974527 -0.00483600 0.17827908
-0.14601997 -0.01321733 -0.35446931
-0.11688983 -0.06333143 0.15818631
0.1488963 -0.04910167 0.30184384
0.04957319 -0.02516000 -0.22539815
-0.115601 -0.03369689 -0.28725897
-0.12890749 0.02367665 0.21758326
0.1249746 0.00746360 -0.11178057
0.00273901 -0.02516000 -0.2183596
0.13302433 -0.04613321 0.15870131
0.02349605 -0.01135123 -0.17045499
0.15520956 -0.04139473 -0.11202117
0.02926554 -0.05633432 0.03113787
0.08342666 0.11335422 0.04387624
-0.056702 -0.02293757 -0.19227213
-0.10131762 -0.05763295 -0.06840822
0.12598687 -0.05548576 -0.03381192
-0.02953 -0.02232609 -0.3056798
-0.1348468 0.01894873 0.3355088
0.14973552 -0.08041600 -0.13353957
0.12607481 -0.00485274 -0.00243748
-0.17042634 -0.00981807 0.33570661
0.15054926 -0.06205312 0.09183814
-0.0476174 -0.02516000 -0.33668441
0.12007055 0.00749568 0.30992904
0.16595413 0.06662198 -0.24235956
0.14047358 -0.08041600 0.06305019
-0.12354394 -0.00011266 0.06190854
-0.1031062 0.06644059 0.13867873
0.051989 0.05007942 -0.2096525
-0.13548592 -0.02425953 -0.42447396
0.11335745 -0.08041600 -0.1572998
0.05153963 -0.06719800 0.03264981
-0.17274576 -0.00714205 0.16706634
0.16312609 -0.01032358 -0.069933
-0.16967007 -0.02940403 0.25586462
0.00933032 0.03284879 -0.18833606
0.11998698 -0.05121583 -0.05282552
0.10108225 0.06648387 -0.38757588
-0.12533456 -0.08041600 -0.17913868
-0.13129255 -0.02546746 -0.10318772
0.13487391 -0.00324736 0.144596
-0.0666165 -0.00458289 0.38402833
0.15705391 -0.00533347 0.1677662
0.0775072 0.08456839 -0.18766556
-0.03407772 -0.06719800 -0.06222301
0.07464218 0.07491775 -0.2023691
-0.1570653 0.03222240 -0.33115244
-0.09319788 0.07320750 -0.11984251
0.08058013 -0.06882766 0.39291387
-0.09368172 0.03368147 -0.10165216
0.09429346 -0.05422687 -0.00416609
-0.03112849 -0.05256227 -0.03944552
0.168863 -0.01811566 0.24094167
-0.14685623 0.02422976 0.32196224
-0.17078366 -0.05470763 0.05696014
0.04695264 -0.03150100 0.27790491
-0.13156041 -0.08041600 -0.0433057
-0.00318782 0.04336541 0.20027525
0.11280771 -0.06719800 0.02635937
-0.16768934 -0.00627403 0.20250868
-0.14068501 -0.02755160 0.24527363
0.03099135 -0.06333884 -0.38098235
-0.05895248 0.07136820 -0.34314496
0.01484089 -0.01608983 0.36060214
0.11778407 0.03226286 0.12885781
-0.09737354 -0.02016542 -0.04991172
0.04809384 0.03780006 -0.32480714
0.06429398 -0.07947505 -0.23935732
-0.08152501 -0.01349268 0.31379658
-0.14386145 -0.06898643 0.28999935
0.16159724 0.00418903 0.06769656
-0.02510144 0.03207455 -0.29769148
-0.15471143 -0.04893379 0.30514199
-0.07836743 -0.02652330 0.33352948
-0.11905513 -0.07842868 0.35832804
0.08181733 -0.08041600 -0.1842977
0.03595569 -0.04704403 0.05522323
-0.1528497 -0.07371746 0.29714722
-0.05651087 0.00983833 -0.33815103
-0.08111554 -0.07826462 0.36047873
-0.1021204 0.08438432 -0.2342098
-0.08206289 0.07115159 -0.22000619
-0.14662314 -0.02377324 0.2596668
0.00969287 0.04137872 -0.24199601
0.06131937 -0.06341662 0.16651455
0.16344482 -0.04458088 0.03032133
0.13476847 -0.05912200 -0.02933364
0.10092901 0.03444380 0.28864523
-0.13097132 -0.05671846 -0.04105026
-0.02174313 0.09482828 0.10869762
-0.02953 0.01844626 -0.29401042
0.1494499 0.03354100 0.28671806
0.15235467 -0.08041600 0.1346881
0.00747058 0.06491623 -0.2137513
0.01908979 0.07287335 -0.3361163
0.17356876 0.00158920 -0.1355013
0.17102776 -0.06379565 -0.34236723
-0.15973686 -0.08078894 -0.32371393
0.16355165 -0.00055674 0.12378064
0.04353293 0.06724820 -0.41471455
-0.11929189 -0.00613661 0.1439983
-0.13904433 0.02313407 0.32652147
0.16060925 0.02666018 0.24639325
-0.1661709 -0.01576881 -0.00669153
-0.04975255 -0.08041600 -0.19846159
-0.14036962 0.04966210 0.13140513
0.11397825 -0.00992900 0.3123166
0.14936422 -0.06139292 -0.04658543
-0.13448225 0.06809860 -0.19371058
0.17319998 0.00266960 0.1804622
-0.17159782 -0.03702367 -0.2794078
-0.15938003 0.06575833 -0.20880751
0.15471275 0.00455251 -0.42076292
0.09158735 -0.08130612 0.30717267
-0.01886343 -0.08041600 -0.11356193
0.159511 -0.04260707 -0.32378655
0.13962124 0.02767546 0.19569308
0.171248 -0.05863803 -0.34885322
-0.14360383 -0.07984797 -0.34979262
0.15564184 0.02736106 -0.31582315
0.13934334 0.01218254 0.18842854
-0.11591092 0.03045047 -0.33448751
-0.01825544 0.04384775 -0.29768633
0.1630298 -0.02531188 -0.05201739
-0.16749892 -0.02288850 0.34630272
-0.16960525 0.03173772 0.17376534
0.07420832 -0.06719800 0.0194461
-0.17630393 -0.02410147 0.16177035
0.03909919 -0.00751273 0.178857
0.0539628 -0.08100510 0.24698438
-0.16465845 -0.00303146 -0.24106007
0.15886623 -0.01336904 -0.30238294
0.06221182 0.10699285 -0.12251324
-0.18077541 -0.07916562 -0.30583024
0.1083487 0.02746470 -0.03887421
-0.05672246 -0.02351025 0.360154
-0.16294252 -0.06342411 -0.00472793
-0.12469194 0.05536004 0.14946219
-0.13309622 -0.08647764 0.2609697
0.14558025 -0.04142153 0.13556345
-0.15637194 -0.07766839 0.1952442
0.00121097 -0.01520206 0.36496612
0.05416473 -0.07398026 -0.31282526
-0.07062296 -0.00483600 0.1500241
0.15151004 -0.08041600 -0.184535
-0.149377 -0.08041600 -0.15705513
-0.14676496 -0.06202578 0.25087136
-0.17983042 0.00867096 -0.24876723
-0.13183187 -0.05799205 -0.06696284
-0.10198918 0.03869358 0.12912151
-0.03013848 -0.07427293 -0.33578911
-0.08433419 -0.00808011 0.29624134
0.051989 0.01801858 -0.17417997
-0.09728034 -0.00362089 0.14180123
0.04260961 -0.02516000 -0.20550423
-0.082868 -0.04960355 -0.40883278
-0.13579858 -0.08041600 -0.00306281
-0.14891874 -0.04364360 0.1774602
0.12598217 0.05889030 0.13805053
-0.115601 0.03464738 -0.27898103
-0.10883716 0.04601872 -0.41843607
0.15628319 0.03387370 -0.30546135
-0.03066609 -0.06719800 0.08656401
-0.17723645 0.00172829 -0.12835285
-0.056702 0.06471731 -0.18375421
0.15308801 -0.05973602 -0.07484908
0.0088617 -0.06078133 -0.42308543
0.15033821 0.00536267 -0.3410329
-0.059143 -0.07135401 -0.3171534
0.16382197 -0.01554641 -0.12356303
-0.06435292 -0.07046401 -0.34043502
-0.01922052 -0.03768499 0.0263749
0.05185899 -0.05997000 0.39159854
-0.16406294 0.04017267 0.27109805
-0.09786004 -0.08130215 0.29175207
0.12334485 -0.01668057 0.14211507
-0.107042 -0.04303305 0.13596998
0.16729578 -0.00555057 0.17549287
-0.18667204 -0.06499573 -0.24089842
-0.0019669 0.09554844 0.10831475
0.0838215 0.01540813 0.30144408
-0.00407821 -0.02707733 -0.00422263
-0.16825418 0.05998578 -0.39684541
0.01426452 0.06266945 0.16793656
-0.111776 -0.00196788 0.21403774
-0.11468779 -0.04243352 0.09523723
-0.1192783 -0.05255770 0.02440053
0.05016549 0.06471326 -0.34876069
0.01105192 -0.06719800 -0.03799359
0.11180434 -0.06686087 0.3710956
-0.08501043 -0.08041600 -0.18976199
-0.09623326 0.07208839 0.13075922
-0.16789099 -0.01642707 -0.30687027
0.1431699 0.03530635 0.27904638
-0.01714997 -0.07917975 0.35745415
-0.15674456 -0.06693263 -0.24238462
-0.04724881 0.00391284 -0.33545684
0.1136448 -0.08041600 -0.05499339
0.04946402 -0.00064370 -0.34820792
0.03547151 -0.03611711 0.39859961
-0.09352484 0.03766151 0.27350159
-0.156618 -0.02683370 -0.27652694
-0.135158 -0.05422200 -0.35895487
0.06696101 -0.08049228 0.16969818
0.108235 -0.07979737 -0.23882403
0.11057916 -0.04157721 0.00023459
0.12473131 0.01242237 0.27158861
-0.14096701 -0.08041600 0.07974284
-0.164226 -0.00588777 -0.2669047
-0.14151468 -0.07828956 0.36022841
0.12892979 -0.06378242 0.30514199
0.14247751 0.03751718 0.13847796
0.13383413 -0.08041600 -0.02036771
0.03149296 0.05730096 -0.12513336
0.09340475 -0.03520798 0.3973763
0.10915972 0.02992005 -0.0242431
-0.08952908 -0.05451978 -0.40404612
-0.111776 -0.07295080 0.16510546
0.1557432 -0.04136675 -0.11212
0.00999047 0.02378352 0.32927667
0.09555165 -0.06096993 0.01204913
-0.19333645 -0.08670280 -0.2637598
0.15722662 -0.03957793 0.15723249
-0.15347063 -0.03645355 -0.37072604
-0.15923217 -0.04857546 -0.32329663
-0.16817313 -0.05467349 -0.06042467
0.14039836 -0.10384091 0.21152952
-0.04237471 0.04779939 -0.07599656
0.1391723 -0.03901252 0.2281773
-0.08846183 -0.08041600 0.00243338
-0.00341867 0.06239158 -0.24352499
-0.01282615 0.03428800 -0.317184
0.01986302 0.05135900 -0.20543923
-0.02085703 -0.01347792 0.37344299
0.01922353 0.03364153 -0.35037726
-0.14381192 -0.05868314 0.06147352
-0.17080534 0.01523554 0.30909867
-0.06836791 0.02973217 -0.30083642
-0.05313032 0.00490029 -0.07221293
-0.1149911 -0.08041600 0.02918988
0.13539085 0.06383052 -0.17558695
0.13302723 0.03921478 0.28483786
-0.16536932 -0.08189710 0.23188491
-0.07107908 -0.06719800 -0.0325557
0.14059559 -0.03242977 0.30403847
-0.15634602 -0.06681610 0.38005257
-0.12471133 -0.02410243 0.30456318
0.06563832 -0.06719800 -0.05350703
-0.03226679 -0.06719800 0.00488425
-0.05384063 0.06791017 -0.40331582
-0.07193074 0.00413289 -0.44254555
-0.03842159 0.03770345 -0.10276781
-0.073186 0.07108072 -0.28865979
0.1771776 -0.05749735 -0.31769056
0.06256155 -0.01758683 0.23261002
0.15988512 0.01744702 0.15358207
-0.05665232 -0.02941114 -0.04428151
0.0456888 0.06656263 -0.1229831
-0.07262787 0.09154187 0.10175901
0.06969803 0.02454581 0.10450646
-0.17965038 -0.03935287 0.30627368
-0.03185265 -0.08041600 -0.06136311
-0.05667928 0.04265862 0.16451648
-0.060071 -0.06738082 -0.36958485
-0.11390432 0.05501516 -0.36092283
0.08088944 0.09865318 -0.21302431
-0.0292228 0.03850067 0.14322415
-0.09767635 0.09125790 -0.13255405
-0.15925799 -0.04693417 -0.28832573
-0.03335189 -0.06628787 -0.37599309
0.02776556 -0.08101480 0.31414242
0.05435136 0.04244179 0.2019594
0.06785576 0.08123223 -0.18146896
-0.12898708 -0.02777010 0.3039936
-0.19303459 0.01976351 -0.34528601
-0.16938186 -0.03139913 -0.11793571
0.16168181 0.00613834 0.10280245
0.0027524 0.04492682 0.22433832
0.07329889 -0.06719800 0.10282845
-0.17491553 -0.01452757 0.17715972
-0.115601 -0.00157422 -0.24837705
0.07906788 -0.05155119 0.05634436
-0.13509034 -0.05352190 0.30514199
0.10670059 -0.00166102 0.12446675
-0.05694139 0.00875128 -0.06359646
0.01728499 -0.00937852 0.13933203
-0.01501903 0.04497916 -0.19111624
-0.0742758 -0.00479829 -0.09097835
0.11493991 0.00748728 0.33131445
0.078154 -0.06208288 -0.38161969
-0.09624974 -0.03224207 -0.08101467
0.08861699 -0.07912043 0.34925958
-0.1234746 -0.08041600 -0.08446409
-0.0191327 -0.04388162 0.02485448
-0.16754779 -0.01453820 0.10955513
-0.16398287 -0.01352937 0.22869478
-0.00954425 0.10803857 0.06644955
0.09748211 0.09702730 -0.17760836
-0.15711678 -0.06484643 -0.31293972
0.16533394 -0.03208606 0.1289464
0.1328758 -0.05875700 0.05299552
-0.06984013 0.07774955 -0.3072437
0.07381544 -0.06316400 0.38473191
0.03081432 0.01207701 0.36129855
-0.13584337 0.02759133 -0.25319279
-0.04592869 0.04756141 -0.21373981
0.14372553 -0.02312365 0.20416699
0.12754404 0.02800237 -0.33759489
-0.14455894 0.05022512 0.03558255
-0.17098716 0.02949693 0.19909703
0.02304457 0.04458812 0.17624854
-0.15186957 0.03863312 -0.31607712
0.07572786 0.06711702 -0.39520047
-0.08449253 -0.08041600 -0.15264025
-0.18572051 0.00025488 -0.24242122
-0.18796043 -0.09771542 -0.32377616
0.117917 -0.10085036 0.2326214
0.15556353 -0.01743111 -0.28179241
0.05870798 0.05881604 0.140891
-0.15993928 0.01562871 0.26810532
-0.17000681 -0.03096758 0.1736518
0.130227 0.03368182 0.19835268
0.04173882 -0.05464189 0.41401234
0.01178473 0.04156734 -0.34347846
0.00588189 0.02734338 -0.32749298
0.16126804 0.06660165 -0.36613115
0.03254746 0.00161245 0.38744092
-0.15239495 -0.05821055 0.11108661
-0.135158 -0.04389752 -0.23189447
-0.12168025 -0.05357919 0.09684322
-0.15684347 -0.08041600 0.01620623
-0.09039848 -0.08041600 0.08463683
-0.02954772 -0.03150100 0.24133236
-0.15579384 -0.05878357 -0.36304465
0.02103322 0.08139110 0.13367801
0.00055272 -0.08041600 0.15196812
-0.08684507 -0.00116586 0.38101061
-0.05652866 -0.08041600 0.12311514
0.12331961 -0.07796574 0.36439693
0.02830262 0.10954928 0.07617349
0.09258404 0.03372722 0.21522853
0.1288773 -0.10592552 0.23296174
0.14904902 0.01967580 0.19819346
-0.00265772 0.03975487 0.14266572
-0.08906784 -0.08083209 0.22090944
-0.00390221 0.04755975 -0.28263944
0.18478889 -0.02931075 -0.22238442
-0.0061553 0.04827645 -0.23872689
-0.1303974 0.03420006 0.3010326
0.10689278 0.08872741 0.07510495
-0.16555075 -0.02470919 0.28098458
0.04271713 0.11916823 0.04173704
0.07924805 -0.02385352 0.2985648
-0.06115214 -0.06719800 -0.02868005
-0.13557416 0.05369606 -0.01733203
-0.09034008 -0.06719800 0.0816394
-0.174759 -0.09499446 -0.29825113
-0.04359625 -0.01186572 -0.05142446
-0.07945664 0.03949482 0.26823749
0.10562698 -0.02851006 -0.0086951
-0.09935519 -0.06884176 0.39902133
-0.01340556 0.04322364 -0.34975962
-0.13148074 -0.03803141 -0.09724521
-0.16963548 -0.04788253 0.08974512
-0.11026154 -0.05505929 0.09586273
-0.056702 0.02750885 -0.18053285
-0.16463664 -0.08041600 -0.19181201
0.00352189 0.06578634 -0.36645565
-0.05280968 0.04282729 -0.25342431
-0.0896974 0.11229253 0.04134663
0.16253473 -0.04865489 0.19538516
0.14206926 -0.06300141 0.23778277
