# .PCD v0.7 - Point Cloud Data file format
VERSION 0.7
FIELDS x y z
SIZE 4 4 4
TYPE F F F
COUNT 1 1 1
WIDTH 1392
HEIGHT 1
VIEWPOINT 0 0 0 1 0 0 0
POINTS 1392
DATA ascii
-0.24522381 -0.24117784 0.11786390
-0.25176665 -0.18509343 0.12034694
-0.28346049 0.08192430 0.12804186
-0.27603323 0.02383740 0.13041263
-0.25024138 -0.19729195 0.12058289
-0.25818413 -0.13137151 0.12158428
-0.23257786 -0.34672326 0.11571973
-0.29672002 0.20357587 0.14050881
-0.25654415 -0.13931298 0.12665144
-0.29199913 0.20476399 0.16286060
-0.22513859 -0.42844626 -0.09332377
-0.30912946 0.21673039 0.12303978
-0.30901421 0.21720777 -0.02504311
-0.30749539 0.21957762 -0.03236332
-0.30484719 0.22085510 0.10481215
-0.29187831 0.22097400 0.16064442
0.29130837 0.22055992 -0.10809431
0.11894646 0.22050758 -0.19520087
-0.29076476 0.22034577 -0.07545658
0.24208443 0.20476399 0.20180626
0.20981031 -0.21244206 0.16511145
0.23009421 -0.00518219 0.18092041
0.19195883 -0.34285846 0.15727099
0.22724576 0.03385677 0.18666012
0.23117836 0.01786903 0.18316397
0.22132609 -0.03811929 0.18070440
0.21185428 -0.19077060 0.16679634
0.21362639 -0.15054709 0.17076082
0.24981185 0.11381062 0.18665366
0.19190017 -0.35815077 0.15550903
0.19957800 -0.26762985 0.16290279
0.20273241 -0.26534595 0.16186318
0.23844695 0.14855809 0.19541914
0.22602777 -0.07502722 0.17444611
0.25504958 0.19152312 0.19356186
0.23002580 -0.02093802 0.17910835
0.24339504 0.13339050 0.19159823
0.22728190 -0.02102039 0.18023511
0.22960755 -0.03951373 0.17711179
0.23229661 0.07782779 0.18970447
0.23192736 0.08089080 0.19021517
0.20970120 -0.43827455 0.12073720
0.07335935 -0.43865383 -0.14313902
-0.21739277 -0.43455833 -0.11721085
0.16848016 -0.43889600 0.04924707
0.17275539 -0.43889600 -0.05016175
0.17541637 -0.43889600 -0.12873183
0.17138147 -0.43889600 -0.05658627
0.16836356 -0.43889600 -0.01579280
0.16849748 -0.43889600 -0.08440801
0.17550422 -0.43889600 0.08260812
0.17303613 -0.43889600 0.00310607
0.17148186 -0.43889600 0.11628741
0.16885189 -0.43889600 0.12708861
0.17847503 -0.43889600 -0.10715074
0.17433898 -0.43889600 0.13766921
-0.23453255 -0.32845084 0.11712170
-0.25016394 -0.17155876 0.13190306
-0.25650455 -0.11694523 0.13487648
-0.24957036 -0.17860257 0.13097814
-0.22543422 -0.40799864 0.11245954
-0.22269159 -0.40983709 0.11846715
-0.23184239 -0.32214361 0.12572988
-0.26610068 -0.04104623 0.13711483
-0.26559726 -0.05154003 0.13481706
-0.27583187 0.03775164 0.13999760
-0.22649756 -0.36770473 0.12338260
-0.23038624 -0.34679635 0.12099226
-0.23388047 -0.29765084 0.12900862
-0.23452284 -0.32344416 0.11882145
-0.22797611 -0.37251768 0.11820064
-0.23664144 -0.28094603 0.12793416
-0.28456383 0.21174729 0.18793829
-0.22376899 -0.43237652 0.07155487
-0.28420164 0.22097400 0.16470562
0.28659236 0.22097400 0.16490275
-0.04647329 0.22011337 -0.19438153
-0.29013144 0.21996730 0.07469297
0.23014951 0.20476399 0.20736326
0.20639519 -0.15567956 0.17236448
0.20138908 -0.17319083 0.17144567
0.19201880 -0.29436982 0.16175889
0.18090127 -0.39208356 0.15441697
0.18559331 -0.35232723 0.15738193
0.21189392 -0.09448371 0.17715536
0.17918100 -0.36466929 0.15711418
0.19773569 -0.20650057 0.16892490
0.18366942 -0.32175357 0.16039068
0.19778059 -0.26118465 0.16399074
0.18254936 -0.31981737 0.16071269
0.19608719 -0.27242568 0.16320070
0.19340457 -0.23073233 0.16731152
0.19918447 -0.22361651 0.16719156
0.19630598 -0.27745753 0.16271841
0.23376818 0.11571905 0.19321829
0.14722339 0.21298200 0.21329200
0.12207126 0.20710542 0.21329200
-0.02459839 0.20952395 0.21329200
0.16012017 0.20595037 0.21329200
0.04403032 0.20550710 0.21329200
0.21154624 0.20576552 0.21329200
-0.01569228 0.20548401 0.21329200
0.06445494 0.20503430 0.21329200
0.19241655 -0.43587167 0.14267517
0.05242780 -0.43889600 -0.04215515
-0.02839736 -0.43889600 -0.08776039
0.11442170 -0.43889600 -0.11776493
0.09955363 -0.43889600 -0.02386000
0.04784808 -0.43889600 -0.02853708
0.03335044 -0.43889600 -0.11913725
0.13253542 -0.43889600 -0.08544815
0.10444670 -0.43889600 0.07095847
0.06047251 -0.43889600 -0.00863883
-0.00889848 -0.43889600 -0.02122939
0.03738038 -0.43889600 -0.00218358
-0.04276362 -0.43889600 -0.05347891
-0.02706361 -0.43889600 -0.05796332
-0.03836701 -0.43889600 -0.08647594
0.07999041 -0.43889600 0.02983122
0.12717685 -0.43889600 -0.10997621
0.02346020 -0.43889600 -0.10426936
0.09406999 -0.43889600 -0.02668549
0.07369275 -0.43889600 -0.04879844
0.00489007 -0.43889600 -0.06939682
0.10492040 -0.43889600 0.05516066
0.06940228 -0.43889600 -0.12841207
0.05852596 -0.43889600 -0.07999337
0.10145573 -0.43889600 -0.04449606
0.15823424 -0.43889600 0.08736185
0.13604741 -0.43889600 -0.10894527
0.09853387 -0.43889600 -0.13434482
-0.04544126 -0.43889600 -0.03900370
-0.07500718 -0.43889600 -0.10857828
0.12935488 -0.43889600 -0.00486039
-0.04341987 -0.43889600 -0.07266422
0.09801896 -0.43889600 0.00738040
0.02620546 -0.43889600 -0.00860605
0.02899823 -0.43889600 -0.03229146
0.11406307 -0.43889600 -0.09238259
0.14277746 -0.43889600 0.11693896
0.09820813 -0.43889600 0.05403531
0.09638110 -0.43889600 0.01070030
0.03020890 -0.43889600 0.01101814
0.02378875 -0.43889600 0.00031475
0.09358524 -0.43889600 -0.10554152
0.11537677 -0.43889600 -0.06865024
0.09059561 -0.43889600 -0.13504058
0.16633635 -0.43889600 -0.03816165
0.08512188 -0.43889600 -0.06030551
0.15685594 -0.43889600 0.08057938
0.09595799 -0.43889600 0.05466964
0.02754243 -0.43889600 -0.04510111
0.09633669 -0.43889600 0.06126386
0.09630166 -0.43889600 -0.08105958
0.14985393 -0.43889600 -0.07737583
0.00251618 -0.43889600 -0.04563234
0.12102594 -0.43889600 0.02609493
0.03208284 -0.43889600 -0.11291319
-0.00743912 -0.43889600 -0.01372823
0.02872116 -0.43889600 0.00901939
-0.06408268 -0.43889600 -0.07987360
0.08867360 -0.43889600 -0.05455049
-0.12851578 -0.43889600 -0.13977418
0.15602452 -0.43889600 -0.12340923
0.05550803 -0.43889600 -0.01795578
0.15491969 -0.43889600 -0.03911972
-0.07989142 -0.43889600 -0.09659939
0.02325186 -0.43889600 -0.10601765
0.09754381 -0.43889600 0.01190507
0.06187777 -0.43889600 -0.03817147
-0.02722689 -0.43889600 -0.03569839
0.12558610 -0.43889600 0.03523303
0.01194088 -0.43889600 -0.05884689
0.04348864 -0.43889600 -0.12766073
0.15049062 -0.43889600 0.09841734
0.13993981 -0.43889600 -0.11322553
0.09820788 -0.43889600 -0.05099355
-0.03366187 -0.43889600 -0.08640817
-0.06649100 -0.43889600 -0.12927476
0.05335905 -0.43889600 0.03079325
0.01104308 -0.43889600 -0.08709004
0.12702905 -0.43889600 -0.07892145
0.06146114 -0.43889600 -0.06787988
0.11653439 -0.43889600 -0.05247051
-0.10118994 -0.43889600 -0.12802711
0.12138279 -0.43889600 0.07567906
0.11937153 -0.43889600 -0.01797748
0.16437753 -0.43889600 0.04570611
0.10500645 -0.43889600 -0.09762293
0.12735798 -0.43889600 -0.06018250
0.13384447 -0.43889600 0.02466979
-0.08830999 -0.43889600 -0.14113965
0.04406427 -0.43889600 0.00173400
-0.03156595 -0.43889600 -0.03857590
0.04840994 -0.43889600 -0.08210211
0.07975816 -0.43889600 -0.07960831
-0.06603511 -0.43889600 -0.08684683
0.15652654 -0.43889600 0.04458294
0.05750200 -0.43889600 -0.09899211
-0.01093056 -0.43889600 -0.02483218
0.09705776 -0.43889600 0.00709021
0.14040214 -0.43889600 0.07700856
0.10063604 -0.43889600 0.06604734
0.03161772 -0.43889600 -0.09114315
-0.02308555 -0.43889600 -0.10926252
-0.02038706 -0.43889600 -0.04066713
0.04030567 -0.43889600 0.02570471
0.07178336 -0.43889600 -0.01311088
0.05547460 -0.43889600 0.02805801
-0.12150209 -0.43889600 -0.13244188
-0.03613272 -0.43889600 -0.06777433
0.16201822 -0.43889600 -0.04057672
-0.03303039 -0.43889600 -0.11583422
0.00692535 -0.43889600 -0.01981152
0.15067627 -0.43889600 0.01220539
0.09833504 -0.43889600 -0.12020557
0.10398878 -0.43889600 0.06706927
0.14000083 -0.43889600 -0.05074709
-0.04439199 -0.43889600 -0.05725991
0.00348425 -0.43889600 -0.01830309
0.10418324 -0.43889600 0.03529078
-0.01196271 -0.43889600 -0.09444450
0.06826163 -0.43889600 -0.12157152
-0.02725027 -0.43889600 -0.06021147
0.12547114 -0.43889600 0.00708487
-0.13958368 -0.43889600 -0.13919669
0.08495011 -0.43889600 0.03713605
0.11140952 -0.43889600 -0.12363831
0.06631107 -0.43889600 -0.06865343
-0.07131652 -0.43889600 -0.10425264
0.08744625 -0.43889600 -0.03841216
0.12853422 -0.43889600 -0.04861247
0.11520392 -0.43889600 -0.09472706
0.08259263 -0.43889600 -0.01074148
-0.08469658 -0.43889600 -0.07254937
-0.05419694 -0.43889600 -0.05001648
0.10028382 -0.43889600 0.00271375
0.03987114 -0.43889600 -0.13922826
0.14424341 -0.43889600 0.00186525
0.03785691 -0.43889600 -0.12661465
0.14362941 -0.43889600 0.10602289
0.12744086 -0.43889600 0.01393623
-0.04820471 -0.43889600 -0.09125021
0.00856346 -0.43889600 -0.06418894
0.10944444 -0.43889600 0.07816024
0.15335076 -0.43889600 -0.07888350
0.09460321 -0.43889600 0.06877056
0.04427883 -0.43889600 0.01204678
0.03280471 -0.43889600 -0.05812937
0.06755105 -0.43889600 -0.08215277
0.06050785 -0.43889600 -0.03680753
0.05741494 -0.43889600 0.00758756
-0.06353672 -0.43889600 -0.11108397
0.05307766 -0.43889600 -0.04087642
-0.12879829 -0.43889600 -0.11691681
0.07483461 -0.43889600 0.02366776
-0.01917266 -0.43889600 -0.04440117
-0.11329337 -0.43889600 -0.13749974
-0.14209716 -0.43889600 -0.12395897
0.14055405 -0.43889600 -0.11799883
0.02142210 -0.43889600 -0.06800333
0.13450230 -0.43889600 0.09756840
-0.17535446 -0.43889600 -0.02792606
-0.17464793 -0.43889600 -0.10230037
-0.17587653 -0.43889600 -0.11754774
-0.17290630 -0.43889600 -0.12219872
-0.17537739 -0.43889600 0.01602649
-0.17879301 -0.43889600 -0.05237549
-0.18119264 -0.43889600 0.09189190
-0.18136034 -0.43889600 -0.10796562
-0.18821382 -0.43889600 -0.12550570
-0.18025744 -0.43889600 -0.01304770
-0.18486738 -0.43889600 -0.00023902
-0.18066283 -0.43889600 -0.13126168
-0.19439090 -0.43889600 -0.11864417
-0.19162317 -0.43889600 -0.12626442
-0.19777513 -0.43889600 0.02720522
-0.19978918 -0.43889600 0.02754037
-0.25439604 -0.12298436 0.13794559
-0.28018521 0.12127840 0.15744652
-0.27380335 0.02656362 0.14115029
-0.27763636 0.07498552 0.14810465
-0.28095087 0.09607733 0.14716280
-0.24172310 -0.22838703 0.13325949
-0.29216184 0.17650892 0.14701998
-0.28931588 0.18813115 0.15778076
-0.26653762 0.00841124 0.15261485
-0.29144592 0.19352217 0.15444300
-0.28033917 0.10416888 0.15134793
-0.27488893 0.06211415 0.15042904
-0.29128262 0.17694674 0.14928910
-0.26865555 -0.01319304 0.14027046
-0.26236776 -0.03634704 0.14770000
-0.28188089 0.09465052 0.14444000
-0.28813772 0.16266820 0.15210201
-0.28357782 0.15986213 0.16217104
-0.29305399 0.19142265 0.14985813
-0.25900692 -0.06708798 0.14552392
-0.26366114 -0.05533257 0.13822272
-0.22113605 -0.42844552 0.11591879
-0.22327346 -0.43330612 -0.09216057
-0.22105797 -0.43249811 0.11222544
0.28995296 0.21984160 -0.06876640
0.27301588 0.22085449 0.19137634
0.04493158 0.21977287 -0.19391133
-0.28956969 0.21957166 0.04376161
0.01017843 0.20476399 0.20363140
0.20275030 0.20476399 0.20614488
-0.03406192 0.20476399 0.20698538
0.16498698 0.20476399 0.20718788
0.01338010 0.20476399 0.20384731
0.13443907 0.20476399 0.20747286
0.08875736 0.20476399 0.20537239
-0.04986232 0.20476399 0.20445997
0.19955864 -0.13641430 0.17500103
0.23077323 0.10323111 0.19248729
0.22163798 0.04707096 0.18862912
0.20735371 -0.04038736 0.18262841
0.22389692 0.04935398 0.18853741
0.20944597 -0.06702602 0.17995227
0.19301261 -0.19158630 0.17089097
0.22664522 0.18700231 0.20058020
0.20968061 0.04242529 0.18978497
0.22856937 0.15276081 0.19724104
0.22215885 0.15395825 0.19819306
0.22689876 0.18741110 0.20058365
0.20945097 -0.01503376 0.18463708
0.20370721 -0.04254964 0.18291371
0.21423216 0.05260931 0.19010340
0.23417596 0.14225469 0.19555598
0.20183390 -0.11040397 0.17704544
0.19290700 -0.18034080 0.17191830
0.19599512 -0.13121286 0.17593901
0.22599493 0.16501624 0.19868447
0.18374333 -0.29059705 0.16318881
0.17614831 -0.43142539 0.15094795
0.04505055 0.21576790 0.21327549
-0.10784993 0.21452943 0.21329200
-0.20764385 0.20786619 0.21329200
0.00537615 0.21478624 0.21329200
-0.01438751 0.21380951 0.21329200
0.00010819 0.21472920 0.21329200
-0.08374250 0.21322453 0.21329200
-0.18395869 0.21404598 0.21329200
-0.01314779 0.21225163 0.21329200
-0.14291561 0.20476399 0.21039950
-0.18269101 0.20476399 0.20676433
-0.17708882 0.20476399 0.20471889
-0.20243177 0.20476399 0.21178608
-0.09918892 0.20476399 0.21077270
-0.21281140 0.20476399 0.21233144
-0.09204478 0.20476399 0.21295222
0.03179924 0.20476399 0.20982011
-0.08864313 -0.43889600 -0.05222196
-0.12649865 -0.43889600 -0.00531597
-0.09194661 -0.43889600 0.05506556
0.00166703 -0.43889600 0.09855514
-0.14965224 -0.43889600 0.03755397
-0.13919563 -0.43889600 0.09122516
0.04102555 -0.43889600 0.09633750
-0.02001495 -0.43889600 -0.00604266
-0.08108720 -0.43889600 0.07415651
-0.05037191 -0.43889600 0.03285906
-0.11756301 -0.43889600 -0.05482295
-0.09418107 -0.43889600 -0.01961103
-0.04098415 -0.43889600 0.12072982
0.00662993 -0.43889600 0.06066140
0.14991417 -0.43889600 0.12935639
-0.16096775 -0.43889600 0.07466144
-0.10383499 -0.43889600 0.08431584
0.01115824 -0.43889600 0.04760907
-0.16323874 -0.43889600 0.09207728
0.03665122 -0.43889600 0.11478196
0.08946833 -0.43889600 0.09260158
-0.09982554 -0.43889600 -0.01030536
-0.10585285 -0.43889600 -0.03757997
-0.03701105 -0.43889600 0.02563731
-0.12439546 -0.43889600 0.08926388
-0.15060013 -0.43889600 0.06457457
-0.12293233 -0.43889600 0.06868938
0.03671402 -0.43889600 0.10438095
0.02533045 -0.43889600 0.11652987
-0.07726417 -0.43889600 0.13275942
0.06552559 -0.43889600 0.07015755
-0.09910619 -0.43889600 -0.01264704
-0.02266582 -0.43889600 -0.00327840
0.01548323 -0.43889600 0.07137118
-0.16342299 -0.43889600 -0.06150890
0.08630710 -0.43889600 0.12928414
-0.02377790 -0.43889600 0.02731856
-0.05898483 -0.43889600 0.01703303
-0.05668314 -0.43889600 0.02359311
-0.02279075 -0.43889600 0.01339036
0.11140937 -0.43889600 0.12181659
-0.10973240 -0.43889600 0.11314499
0.09360045 -0.43889600 0.08880294
-0.12901844 -0.43889600 0.06642796
-0.15820127 -0.43889600 0.10103735
-0.02310729 -0.43889600 0.00856555
-0.15330584 -0.43889600 0.12319098
0.10779153 -0.43889600 0.09538670
0.01377799 -0.43889600 0.05693812
-0.14568184 -0.43889600 0.07033853
-0.02678395 -0.43889600 0.10973884
0.07640874 -0.43889600 0.08793261
0.01223105 -0.43889600 0.12722729
0.00459990 -0.43889600 0.10049971
-0.01793390 -0.43889600 0.11297601
-0.13046196 -0.43889600 -0.01527588
0.10977638 -0.43889600 0.13611399
-0.03277090 -0.43889600 0.06140679
-0.15068186 -0.43889600 0.01546096
-0.09223363 -0.43889600 0.00482516
0.06085221 -0.43889600 0.09023426
-0.13750741 -0.43889600 0.05434207
-0.06069028 -0.43889600 0.04437346
-0.07669471 -0.43889600 0.09323933
-0.06371976 -0.43889600 0.00810114
-0.09805840 -0.43889600 0.12464306
-0.03995348 -0.43889600 0.09637823
-0.01787986 -0.43889600 0.06782808
-0.14580121 -0.43889600 -0.08338384
-0.12930716 -0.43889600 0.08198654
0.06734720 -0.43889600 0.07321530
0.05851774 -0.43889600 0.08839922
0.14799409 -0.43889600 0.13776957
-0.00743528 -0.43889600 0.05376069
-0.08842111 -0.43889600 0.08291928
-0.08924643 -0.43889600 0.12964186
-0.10982822 -0.43889600 0.13170356
-0.12910127 -0.43889600 0.10804101
-0.05154895 -0.43889600 0.08112982
-0.11245799 -0.43889600 -0.00940512
0.07713467 -0.43889600 0.13518750
-0.02219732 -0.43889600 0.10189666
-0.11809874 -0.43889600 0.13920845
-0.06743830 -0.43889600 0.05702149
-0.08931021 -0.43889600 0.00446043
-0.10883569 -0.43889600 0.05319693
-0.13569102 -0.43889600 0.04937178
-0.15074261 -0.43889600 0.00854196
-0.14129801 -0.43889600 0.05519477
-0.08709678 -0.43889600 0.03841068
-0.11312347 -0.43889600 0.06545346
0.06274487 -0.43889600 0.07938808
-0.09698765 -0.43889600 0.00202042
-0.06043638 -0.43889600 0.05373681
0.02941273 -0.43889600 0.06640179
-0.12768205 -0.43889600 -0.08474492
-0.11918431 -0.43889600 0.11740740
-0.08095017 -0.43889600 0.07710895
-0.09798340 -0.43889600 -0.06566677
0.08805000 -0.43889600 0.10472167
0.02949540 -0.43889600 0.10638549
-0.01865482 -0.43889600 0.13800969
-0.04457321 -0.43889600 0.10163788
-0.15506498 -0.43889600 -0.00785925
-0.12756947 -0.43889600 0.08756983
-0.16426686 -0.43889600 0.10901321
-0.11990025 -0.43889600 -0.08527996
0.06005108 -0.43889600 0.14091778
-0.15306487 -0.43889600 -0.10734800
0.02029429 -0.43889600 0.13658992
-0.09052339 -0.43889600 0.05076181
0.01278960 -0.43889600 0.09607141
-0.10864483 -0.43889600 0.02921672
-0.12220715 -0.43889600 0.12005924
0.01824908 -0.43889600 0.10329658
-0.06961269 -0.43889600 0.02599464
-0.09090851 -0.43889600 0.12821235
-0.14045507 -0.43889600 0.00757172
-0.01316622 -0.43889600 0.01794939
-0.05586680 -0.43889600 0.00540333
0.00316198 -0.43889600 0.02725365
-0.13596828 -0.43889600 0.09381842
0.15711665 -0.43889600 0.13711061
-0.13915374 -0.43889600 -0.04091554
-0.06014646 -0.43889600 0.12787986
-0.13255028 -0.43889600 0.11184391
-0.11272345 -0.43889600 -0.00291921
0.12585550 -0.43889600 0.11772023
-0.00373429 -0.43889600 0.10316955
-0.16294514 -0.43889600 0.06517605
0.00781207 -0.43889600 0.13634537
-0.11342546 -0.43889600 -0.03452609
-0.14996222 -0.43889600 -0.07873869
-0.00995709 -0.43889600 0.12973526
-0.00968188 -0.43889600 0.13966562
-0.11703488 -0.43889600 0.09930979
-0.01221195 -0.43889600 0.07357714
-0.10382198 -0.43889600 -0.00310235
-0.03948759 -0.43889600 -0.02447605
-0.16584634 -0.43889600 0.06309784
-0.12661163 -0.43889600 -0.04885596
-0.16005810 -0.43889600 -0.05854893
0.12424484 -0.43889600 0.11592873
-0.07780724 -0.43889600 -0.06567402
-0.03297836 -0.43889600 0.07243176
-0.15251567 -0.43889600 -0.08425483
-0.08708380 -0.43889600 -0.05324443
-0.09552375 -0.43889600 -0.00161681
-0.11616988 -0.43889600 0.02322863
-0.09598431 -0.43889600 0.06186859
0.04875150 -0.43889600 0.11292323
-0.02500045 -0.43889600 0.02123859
-0.08064282 -0.43889600 0.05591488
-0.05618005 -0.43889600 0.03451623
-0.02488825 -0.43889600 0.06089010
-0.15346500 -0.43889600 -0.08843026
0.09772342 -0.43889600 0.10209703
-0.16068248 -0.43889600 0.00304703
-0.07397019 -0.43889600 -0.04327643
-0.17896807 -0.43889600 0.13048824
-0.16756469 -0.43889600 -0.11786203
-0.17127280 -0.43889600 0.07091079
-0.16958686 -0.43889600 0.03743831
-0.16966912 -0.43889600 0.04411857
-0.16968386 -0.43889600 0.04591466
-0.18944595 -0.43889600 -0.05229781
-0.18260179 -0.43889600 0.12957794
-0.18253456 -0.43889600 0.13226555
-0.18616976 -0.43889600 0.12396558
-0.18883528 -0.43889600 0.12453077
-0.20035731 -0.43889600 -0.02228479
-0.20115960 -0.43889600 0.04444092
-0.20019928 -0.43889600 -0.08935857
-0.19531489 -0.43889600 0.01536233
-0.19795186 -0.43889600 0.09404136
-0.19257325 -0.43889600 0.10879402
-0.19358262 -0.43889600 0.01724874
-0.20657426 -0.43889600 0.01120023
-0.20627225 -0.43889600 0.00311811
-0.20244219 -0.43889600 -0.03933695
-0.21293581 -0.43884612 -0.09982893
-0.08461111 -0.43887107 0.14146510
-0.22457212 -0.34069941 0.13392942
-0.23028467 -0.31163610 0.13259478
-0.24544987 -0.16798104 0.14303136
-0.24213540 -0.20890003 0.13874863
-0.22183354 -0.38689958 0.12778602
-0.21739057 -0.38119302 0.13477553
-0.26261616 -0.01303222 0.15323439
-0.27690644 0.10113435 0.15861204
-0.21656983 -0.38966849 0.13406337
-0.26306105 -0.02006037 0.15117717
-0.25908015 -0.04976677 0.15012001
-0.23727098 -0.20513131 0.14587999
-0.27316632 0.07815754 0.15865581
-0.23288392 -0.25254945 0.14162875
-0.21227449 -0.42576597 0.13207245
-0.22636474 -0.32357954 0.13519231
-0.26401022 0.06214515 0.16722272
-0.22136502 -0.32616850 0.14116351
-0.24442107 -0.09544768 0.15962118
-0.27313533 0.14349514 0.17243291
-0.26130802 0.05800204 0.16987355
-0.21640187 -0.36278761 0.13993324
-0.26819220 0.10330594 0.17042597
-0.25552062 -0.04656517 0.15543192
-0.26136021 0.04271079 0.16659064
-0.24356038 -0.10894504 0.15790522
-0.28188653 0.20333091 0.17360720
-0.24629482 -0.08837859 0.15866528
-0.27341344 0.08605680 0.15999438
-0.26006856 0.02719945 0.16501294
-0.26748266 0.10053965 0.17076914
-0.23195259 -0.22035114 0.14961171
-0.24599257 -0.11532203 0.15339453
-0.23495838 -0.19489651 0.15104581
-0.27181959 0.15606010 0.17678948
-0.27110761 0.12433452 0.17104732
-0.25394228 -0.02553469 0.16191056
-0.27710774 0.20476399 0.19139196
-0.22247905 -0.43430294 0.00351463
-0.30344789 0.21993853 0.15122580
0.28943662 0.21947793 -0.04226816
0.28804099 0.22066568 0.14805782
-0.13955149 0.21870638 -0.19281805
-0.28915844 0.21920321 -0.01684242
-0.08426033 -0.16038349 0.17388973
-0.13827050 -0.26829416 0.16539711
-0.15393002 -0.13056613 0.17623637
0.11323426 0.05479524 0.19082439
0.01659118 0.06225218 0.19141126
-0.09531049 -0.07237856 0.18081576
0.02136628 -0.09079516 0.17936636
-0.07317741 -0.17724024 0.17256309
-0.03628155 0.06369489 0.19152480
-0.14150031 -0.08312124 0.17997030
-0.15400565 -0.13902763 0.17557044
-0.01045954 0.18085222 0.20074513
0.10488323 0.14052908 0.19757169
-0.05778442 0.13689624 0.19728578
-0.05590770 -0.00763238 0.18591131
-0.17396683 -0.35180050 0.15882512
-0.18201901 -0.04227882 0.18318462
-0.09796479 -0.21123661 0.16988756
0.02030384 -0.08763725 0.17961489
-0.06575080 0.03817365 0.18951627
0.11056158 0.02686444 0.18862623
-0.17197755 0.18571477 0.20112782
0.08657575 0.02369017 0.18837641
-0.05817609 -0.02695420 0.18439067
-0.01411484 -0.01507450 0.18532561
0.02502228 0.10438684 0.19472727
-0.16940556 0.09745119 0.19418144
-0.13662829 -0.03766574 0.18354767
-0.10976862 0.15722134 0.19888537
-0.16184205 -0.02057757 0.18489252
0.02465493 -0.08836850 0.17955734
0.10440142 0.11887989 0.19586788
-0.07168615 -0.18060662 0.17229816
0.04067108 -0.07177101 0.18086357
0.05032784 0.11136892 0.19527677
-0.13958758 0.05437324 0.19079118
-0.08482187 0.06719373 0.19180016
0.12207640 0.12135144 0.19606240
0.01519070 0.00710650 0.18707127
-0.03985910 -0.15730015 0.17413239
0.07706832 0.19151338 0.20158417
0.18752789 0.17645709 0.20039924
-0.12190350 0.20071535 0.20230837
-0.10901276 0.09617097 0.19408068
-0.01105495 -0.01683953 0.18518670
-0.17528511 -0.34053231 0.15971193
-0.03312988 -0.15850048 0.17403792
-0.13527991 0.01675035 0.18783024
-0.03664964 -0.02074710 0.18487918
0.05602433 -0.06108385 0.18170466
-0.17489661 0.08527185 0.19322292
-0.06203004 -0.20971066 0.17000766
-0.07897466 0.10039901 0.19441343
-0.05231301 0.06504484 0.19163104
-0.04967288 -0.13534938 0.17585992
-0.21251444 0.20172274 0.20238765
-0.15747448 -0.35599676 0.15849488
0.10288693 0.08799834 0.19343749
0.07500381 0.16897051 0.19981004
-0.07918045 -0.04201162 0.18320565
-0.11469864 -0.18397043 0.17203343
-0.11159476 -0.08015160 0.18020401
0.05174087 0.19399718 0.20177965
-0.13963020 -0.08012006 0.18020650
0.01582206 0.11680139 0.19570430
-0.08069983 -0.15607798 0.17422857
0.12665783 0.19600187 0.20193742
0.08290483 -0.00894803 0.18580777
-0.05263823 0.15649511 0.19882822
-0.09834453 -0.00123811 0.18641454
0.09175188 0.19416601 0.20179294
-0.12552835 0.10451044 0.19473700
-0.04566102 0.18053472 0.20072015
-0.13862302 -0.36328214 0.15792151
-0.05750948 0.07024246 0.19204010
-0.03344320 0.12224643 0.19613283
-0.04349591 0.08559677 0.19324849
0.06878249 0.03771679 0.18948031
-0.04372261 0.06347402 0.19150742
-0.20934388 0.05272671 0.19066160
0.07157598 0.11782578 0.19578492
-0.09688695 0.20039556 0.20228320
-0.06528824 -0.12510401 0.17666624
-0.09122858 0.16219017 0.19927642
-0.00480824 0.00493631 0.18690047
-0.10215831 0.15192198 0.19846831
0.08953206 0.00268707 0.18672346
-0.02480425 0.05290517 0.19067564
0.12322026 0.05638482 0.19094949
-0.04051059 0.17383657 0.20019300
-0.02155217 -0.08096693 0.18013985
-0.17085444 -0.11847387 0.17718803
-0.13770479 -0.25667387 0.16631163
0.01548079 0.14121037 0.19762530
-0.16926838 -0.00463674 0.18614707
-0.19221666 0.04368366 0.18994991
0.03470570 -0.06494728 0.18140060
0.01312478 0.01835341 0.18795640
-0.15006582 -0.11199950 0.17769757
-0.00150416 -0.07400536 0.18068773
-0.07300713 -0.18756951 0.17175018
-0.13514261 0.12653334 0.19647021
-0.06326557 0.11406731 0.19548913
0.00750971 -0.04073533 0.18330609
-0.02887758 0.01916218 0.18802005
-0.13011767 -0.21771357 0.16937782
0.02534764 0.18906980 0.20139186
-0.04632791 -0.05814497 0.18193595
-0.07872616 -0.28302670 0.16423765
0.12673665 0.08795022 0.19343370
-0.10681110 -0.18085078 0.17227894
-0.12755917 -0.36212180 0.15801283
-0.18703322 -0.11993382 0.17707314
-0.11553444 -0.18733355 0.17176875
0.02231458 0.19021046 0.20148163
-0.15544125 -0.31430917 0.16177571
-0.20593390 0.19191352 0.20161566
-0.12197398 0.12332994 0.19621810
0.03092953 0.20026328 0.20227279
-0.08048001 -0.27510584 0.16486103
0.02007758 -0.06374841 0.18149495
-0.02525505 -0.14663199 0.17497198
-0.16937784 0.18442964 0.20102668
-0.04066558 -0.11747743 0.17726646
-0.06906803 -0.18779714 0.17173226
0.01015323 0.00593307 0.18697892
0.00499370 0.15835275 0.19897442
-0.15596042 0.18180194 0.20081988
0.01109119 0.13557627 0.19718190
0.13650075 0.13654898 0.19725845
0.08974290 0.00994435 0.18729461
-0.13332228 -0.21426910 0.16964891
-0.16375262 -0.05003866 0.18257392
-0.12747432 -0.31336209 0.16185024
0.02329257 0.00414583 0.18683826
-0.11944722 0.05132811 0.19055153
-0.07313054 0.06211795 0.19140069
-0.20118118 0.08095741 0.19288337
-0.02456896 -0.11719468 0.17728871
-0.14078928 0.04279680 0.18988011
-0.10253602 0.13209977 0.19690829
-0.19429455 -0.11945360 0.17711093
-0.05459208 -0.04100773 0.18328466
-0.03222555 -0.18142703 0.17223359
-0.18106500 0.01757863 0.18789543
0.10018128 0.04644061 0.19016688
-0.18855298 0.13956573 0.19749587
0.06776459 -0.00924355 0.18578451
-0.11663103 -0.24980896 0.16685190
-0.20907865 0.13748075 0.19733178
-0.12474124 0.10575750 0.19483515
-0.03629797 0.12021313 0.19597281
0.05570808 0.08953096 0.19355811
-0.02707678 -0.17080577 0.17306949
0.09378201 0.07591132 0.19248624
-0.02917305 -0.12767659 0.17646378
0.00162109 0.02448626 0.18843906
-0.15010553 0.04704166 0.19021418
-0.19157367 -0.11139694 0.17774499
0.08721231 0.11847696 0.19583617
-0.03851322 -0.14973374 0.17472787
0.10751268 0.15996497 0.19910130
0.14675615 0.16108529 0.19918947
-0.18020123 -0.24701339 0.16707192
-0.00780912 0.01046962 0.18733595
0.00979799 0.17951761 0.20064010
-0.15875750 -0.38108639 0.15652031
-0.11590099 0.14791933 0.19815330
-0.20311817 0.13604987 0.19721917
0.14408038 0.10646335 0.19489070
0.03982626 0.10835296 0.19503941
0.03180761 0.10822244 0.19502914
0.15006705 0.17434882 0.20023331
-0.01214242 -0.07687060 0.18046223
0.12443620 0.12438719 0.19630131
-0.14923497 -0.04380846 0.18306424
0.04377483 0.08954562 0.19355926
-0.11059206 0.17851718 0.20056137
-0.08036866 -0.01130145 0.18562255
0.12801527 0.20373666 0.20254615
0.00893491 0.14600388 0.19800255
0.11487927 0.16811370 0.19974261
-0.15129000 -0.19734854 0.17098056
0.15851133 0.13329810 0.19700260
0.08961052 0.16867307 0.19978663
-0.19171609 -0.14462678 0.17512979
-0.16105215 -0.12841701 0.17640551
-0.20633711 0.03632609 0.18937086
-0.12821370 -0.16555692 0.17348258
-0.16306283 -0.19967499 0.17079747
0.11758353 0.10751013 0.19497308
-0.13078056 -0.36114915 0.15808938
-0.12953588 -0.05345756 0.18230485
-0.17613009 -0.29785210 0.16307089
-0.15217747 -0.01722740 0.18515618
-0.09934604 -0.26112377 0.16596142
-0.17408191 -0.02367187 0.18464900
-0.15834029 0.00386971 0.18681653
-0.15446465 -0.11444816 0.17750486
-0.17494215 0.01513841 0.18770338
-0.21513240 0.19108535 0.20155049
-0.00195990 -0.12231971 0.17688537
0.14479421 0.17851896 0.20056151
-0.18032539 -0.17869835 0.17244834
-0.07402391 0.05210174 0.19061241
0.18361352 0.17302233 0.20012892
-0.19185345 0.11807537 0.19580457
-0.17022424 -0.24435296 0.16728129
-0.06562104 -0.02455484 0.18457951
-0.14571871 -0.18585893 0.17188480
0.05623332 -0.04493568 0.18297552
-0.17052213 -0.38153188 0.15648525
-0.20801884 0.18744322 0.20126385
0.03322140 0.17259091 0.20009497
-0.10997538 -0.02988186 0.18416027
0.02495123 0.07821314 0.19266739
0.03892814 0.03016164 0.18888572
0.08311279 0.00419079 0.18684180
-0.13243136 0.08926899 0.19353749
-0.03823614 0.01381577 0.18759929
-0.13785722 0.13346645 0.19701585
-0.15407416 -0.09844074 0.17876465
0.08030332 0.04779022 0.19027309
-0.09501701 0.11535363 0.19559037
-0.05599543 0.07666515 0.19254556
-0.10896226 -0.04712044 0.18280358
0.12724363 0.13416542 0.19707086
-0.14009201 -0.34232373 0.15957095
-0.16996340 0.03335345 0.18913691
-0.13213380 -0.10125477 0.17854319
-0.07311499 0.14551350 0.19796396
-0.13834986 0.06474023 0.19160707
-0.20438042 0.14523372 0.19794194
0.07170349 0.16978391 0.19987405
-0.08376509 0.01432461 0.18763934
0.20400307 0.19212140 0.20163202
-0.08123530 0.03251908 0.18907125
0.03215309 0.15462127 0.19868075
-0.14107669 -0.22778857 0.16858492
-0.19158684 0.16357408 0.19938534
0.10208821 0.17189412 0.20004013
-0.15142319 -0.18465748 0.17197936
-0.13368648 0.03835432 0.18953049
-0.19540659 -0.06893649 0.18108665
-0.18206959 -0.16784768 0.17330229
0.01146900 0.04312115 0.18990564
-0.05088773 -0.02346071 0.18466561
-0.15284300 -0.33900361 0.15983225
-0.13351816 0.09451282 0.19395019
0.06062152 0.18227938 0.20085745
0.03940399 -0.01641016 0.18522050
-0.10853513 -0.05267996 0.18236605
-0.06061540 -0.17574086 0.17268110
0.02489525 -0.04837854 0.18270457
-0.08125465 -0.12880770 0.17637476
0.04846767 0.04371410 0.18995230
-0.06815143 -0.05249993 0.18238022
-0.15066148 0.00551179 0.18694576
0.18451998 0.16435825 0.19944705
0.01286611 0.05951955 0.19119620
0.03984901 0.15843833 0.19898115
-0.14210194 0.16640373 0.19960803
-0.09478138 0.00273206 0.18672700
-0.17225486 0.11873804 0.19585672
-0.04319678 -0.19538167 0.17113536
0.02886722 0.19538273 0.20188869
-0.02180316 0.15896358 0.19902249
-0.17661933 -0.23902246 0.16770081
-0.12965699 -0.18949723 0.17159847
-0.07224116 0.11841307 0.19583115
0.12397081 0.16768476 0.19970885
-0.18069664 0.18163323 0.20080660
-0.09669274 -0.06874403 0.18110180
-0.11682673 -0.09216935 0.17925821
0.06870756 0.02643157 0.18859216
0.13184380 0.09184839 0.19374049
-0.02664509 0.06417602 0.19156267
-0.02007462 -0.09286041 0.17920383
-0.16363853 0.04916949 0.19038164
-0.16654581 -0.38777435 0.15599397
-0.16033994 -0.30928178 0.16217137
-0.17814370 -0.05583383 0.18211784
-0.06131233 0.17112177 0.19997934
0.18502788 0.18744134 0.20126370
0.00539485 -0.04781507 0.18274892
-0.08104991 0.18926599 0.20140730
-0.01986587 0.19110292 0.20155187
-0.15302676 0.15045337 0.19835273
0.00217010 0.14247986 0.19772521
-0.08242979 0.08891079 0.19350930
0.01119606 -0.06836056 0.18113198
-0.18548371 -0.00930480 0.18577969
0.00759872 -0.01097368 0.18564835
-0.16357569 0.10031594 0.19440689
-0.16311984 -0.11494951 0.17746540
-0.16189740 0.01863273 0.18797839
0.03891293 0.06740979 0.19181716
-0.13460484 -0.25138123 0.16672817
-0.01751946 -0.05575379 0.18212413
-0.20755667 0.09098927 0.19367288
-0.15979469 0.12915806 0.19667678
-0.18916458 0.00788464 0.18713251
-0.17587707 0.01733144 0.18787598
-0.12099095 0.18650815 0.20119026
-0.16865278 0.08167251 0.19293965
-0.06772578 -0.25120428 0.16674209
0.09223815 0.05332149 0.19070841
-0.01115889 0.16735501 0.19968290
-0.00300387 -0.02227197 0.18475917
-0.08409919 -0.27883305 0.16456770
-0.13361884 -0.14222198 0.17531905
-0.09035025 0.09667774 0.19412057
-0.14302186 -0.10245087 0.17844905
0.16029115 0.16442170 0.19945205
0.10506369 0.16139637 0.19921395
-0.02186548 0.06023194 0.19125226
-0.00674968 0.02272000 0.18830006
0.06758001 0.03487316 0.18925652
-0.03930471 0.05071777 0.19050350
0.13936286 0.12135412 0.19606261
-0.02526001 0.02629296 0.18858125
-0.01675544 -0.07359117 0.18072032
-0.18128417 0.02011782 0.18809526
-0.00723755 -0.16253950 0.17372005
0.08736974 0.11637506 0.19567075
-0.17428599 -0.04886186 0.18266653
-0.08573234 -0.02725223 0.18436722
0.10849297 0.15811970 0.19895608
-0.09078413 0.00433496 0.18685315
-0.12742060 -0.25536655 0.16641452
-0.05307971 -0.12509333 0.17666708
-0.08552589 0.03623419 0.18936363
-0.10460638 -0.31436290 0.16177148
-0.15560550 0.06125870 0.19133307
-0.19711428 0.07355697 0.19230095
-0.13715232 -0.05588975 0.18211343
0.02779634 0.12834525 0.19661281
-0.08853448 -0.17033525 0.17310652
-0.15252908 -0.24491990 0.16723668
-0.12503679 0.08765172 0.19341021
-0.03461608 0.18045920 0.20071421
-0.10786826 -0.30378698 0.16260381
-0.13444009 -0.03882556 0.18345639
-0.17871523 0.19143731 0.20157819
-0.16269608 -0.16768642 0.17331499
-0.04385920 -0.03030801 0.18412673
-0.13538764 -0.01952690 0.18497521
-0.18427316 0.10762629 0.19498222
-0.07245826 0.02795028 0.18871168
-0.13356346 0.19860101 0.20214197
-0.18526525 -0.04034878 0.18333652
0.04518983 -0.01133945 0.18561956
0.02612219 -0.02999044 0.18415172
-0.05416491 0.18946900 0.20142328
0.16240608 0.17808618 0.20052745
-0.15861958 -0.27126236 0.16516351
0.01731473 -0.09303511 0.17919008
-0.11876930 0.13315299 0.19699118
-0.10286029 0.08283235 0.19303093
0.01020503 -0.12703060 0.17651462
-0.14034792 -0.14338094 0.17522784
-0.13648623 0.15415573 0.19864411
-0.12574448 -0.10043773 0.17860749
-0.00702450 -0.02721364 0.18437026
0.14876081 0.12870223 0.19664091
-0.16674018 -0.10800268 0.17801212
-0.09586037 0.04345497 0.18993191
-0.16102999 -0.04826000 0.18271390
-0.12511110 -0.14168615 0.17536122
0.08647501 0.08319765 0.19305968
-0.14312023 -0.06899223 0.18108226
-0.08418284 -0.26711526 0.16548989
-0.01831430 0.00459565 0.18687366
-0.12327576 0.05621650 0.19093625
-0.17736169 0.15769722 0.19892283
0.06665915 0.15156251 0.19844002
0.11573326 0.11301313 0.19540617
-0.08395680 -0.08784225 0.17959876
0.02663372 -0.10309203 0.17839859
-0.01491129 0.14446196 0.19788121
-0.16471364 0.12750088 0.19654636
-0.16504040 -0.02167681 0.18480601
-0.03495512 0.06248476 0.19142956
-0.10923605 -0.31070394 0.16205944
-0.08418862 -0.02148104 0.18482142
-0.04815061 0.08117219 0.19290027
-0.19003345 0.06194262 0.19138690
0.11820885 0.15951980 0.19906626
-0.04235967 -0.08049824 0.18017673
-0.18820309 -0.15514141 0.17430228
0.00508785 -0.11404379 0.17753669
-0.11475113 -0.18391523 0.17203777
-0.17167468 -0.19551077 0.17112520
0.03544655 -0.09532118 0.17901016
0.08567583 0.09701077 0.19414678
0.05331637 0.16668259 0.19962998
0.01689321 0.19528057 0.20188065
-0.18735441 -0.02191961 0.18478690
0.09794336 0.05663526 0.19096920
0.14789964 0.09228737 0.19377504
0.11493719 0.08426037 0.19314331
-0.10577201 -0.20817086 0.17012884
-0.00935628 -0.07935751 0.18026651
-0.10774519 -0.24640647 0.16711968
0.12287303 0.19953290 0.20221531
0.01329142 -0.08989871 0.17943691
-0.08143927 0.18559593 0.20111847
0.05748677 0.12252376 0.19615466
0.07189317 0.13750451 0.19733365
-0.03303604 -0.11140447 0.17774440
-0.13336326 -0.34097524 0.15967708
-0.14927540 0.10180990 0.19452447
0.07728209 0.10117653 0.19447462
0.01121922 0.02042708 0.18811960
-0.17888940 0.08007149 0.19281365
-0.15782048 -0.37846572 0.15672656
-0.17725668 -0.08565796 0.17977066
-0.10045775 -0.18059685 0.17229893
-0.15448484 -0.03537287 0.18372812
0.18306841 0.18799701 0.20130743
-0.15353173 0.10143510 0.19449497
-0.03080975 -0.11514038 0.17745038
-0.01167890 0.17903317 0.20060198
-0.06692830 0.08865599 0.19348925
-0.10546019 0.14257083 0.19773237
0.00765518 -0.09433540 0.17908774
0.18376913 0.15175427 0.19845511
-0.16501568 -0.39830673 0.15516506
-0.13888901 0.13745673 0.19732989
-0.07376009 0.14182191 0.19767343
0.11861602 0.07336117 0.19228554
-0.05311300 0.06828998 0.19188644
-0.00979378 0.07362490 0.19230630
-0.05755824 -0.15856761 0.17403264
-0.06498912 0.14622253 0.19801976
-0.17544693 -0.09948889 0.17868216
0.01817809 -0.06240124 0.18160098
-0.16121218 0.15945639 0.19906127
-0.00148218 -0.09772597 0.17882091
-0.01832817 0.05097593 0.19052381
0.09811161 0.05046067 0.19048326
-0.02485755 0.09793602 0.19421959
-0.00355355 -0.06995771 0.18100628
-0.08858348 0.13698651 0.19729288
-0.07427849 0.16018077 0.19911828
-0.01962460 -0.01289667 0.18549701
-0.04747520 0.12084722 0.19602271
0.10784945 0.07599404 0.19249275
-0.04795381 -0.04348877 0.18308940
-0.20586379 0.04606059 0.19013697
-0.07620316 -0.22785391 0.16857978
0.01836134 0.00121294 0.18660744
0.01847165 0.00726016 0.18708336
-0.15922266 0.01193562 0.18745132
-0.10108691 0.00490123 0.18689771
-0.03294784 0.15953244 0.19906726
-0.02607381 0.09605094 0.19407124
-0.07958177 0.17096471 0.19996698
-0.14123412 0.17295278 0.20012345
0.03907923 0.00162698 0.18664003
-0.16035744 0.10067058 0.19443480
-0.17763172 0.04207595 0.18982338
-0.19543520 0.08290842 0.19303691
-0.17253944 0.02526419 0.18850029
-0.04319665 -0.00358657 0.18622972
-0.20516635 0.19596786 0.20193474
-0.09859776 0.19658129 0.20198302
-0.06404065 -0.12614801 0.17658408
-0.16161461 0.02019324 0.18810120
-0.10684345 0.11799930 0.19579858
-0.13338293 -0.14678193 0.17496018
-0.10650575 -0.06171693 0.18165483
0.01400616 -0.10229281 0.17846149
-0.07117759 -0.12244787 0.17687528
0.13872796 0.10091459 0.19445401
0.15269983 0.18280126 0.20089853
-0.00239026 -0.08837904 0.17955651
-0.00165695 -0.04171645 0.18322888
0.14552142 -0.42490988 0.15307138
0.06791414 -0.39002554 0.15581680
-0.01127786 -0.31455980 0.16175598
0.02229451 -0.39698892 0.15526877
0.07076536 -0.20848572 0.17010406
-0.08181785 -0.30648745 0.16239128
0.13711731 -0.03686361 0.18361080
0.10014314 -0.03687637 0.18360980
0.03132529 -0.37683883 0.15685460
0.01146033 -0.27696037 0.16471508
0.09057707 -0.13066853 0.17622831
-0.01626902 -0.27740588 0.16468001
0.00426979 -0.14941099 0.17475327
0.15484218 0.00772011 0.18711956
0.14227775 -0.12674811 0.17653685
0.09158666 -0.06641520 0.18128508
-0.06679361 -0.33620484 0.16005251
0.06430717 -0.41773299 0.15363621
-0.10353912 -0.33704694 0.15998624
0.14617852 -0.09315157 0.17918091
0.15840286 -0.04926833 0.18263454
0.13143992 -0.16790538 0.17329775
0.01544295 -0.16030927 0.17389557
-0.06100453 -0.34060625 0.15970612
0.16083143 0.03754708 0.18946696
0.19168189 0.06489645 0.19161936
0.19539426 0.13608969 0.19722230
0.19902820 0.03400922 0.18918852
-0.05135357 -0.27242056 0.16507236
-0.03476589 -0.38821306 0.15595944
0.05795129 -0.21109986 0.16989833
-0.03368025 -0.36395881 0.15786826
0.10737594 -0.08010882 0.18020738
0.00070323 -0.24917437 0.16690185
0.04938615 -0.25052471 0.16679557
0.10382912 -0.28375995 0.16417995
-0.05035501 -0.36946755 0.15743472
0.13298621 -0.35164346 0.15883748
-0.02344948 -0.32802284 0.16069644
0.06930299 -0.22881509 0.16850413
-0.13822161 -0.38115928 0.15651457
0.13727069 -0.28987052 0.16369904
-0.00573823 -0.36108707 0.15809427
0.08308052 -0.03859448 0.18347458
0.02367042 -0.22335925 0.16893351
0.13789106 -0.18357480 0.17206456
-0.13788982 -0.41487373 0.15386123
-0.02304915 -0.33871429 0.15985501
0.17750987 -0.23930086 0.16767890
0.16222356 -0.18755127 0.17175161
0.15627836 -0.28386138 0.16417196
0.04343690 -0.27682932 0.16472539
0.10467498 -0.12008885 0.17706094
0.03144208 -0.40241531 0.15484172
0.21717690 0.19410387 0.20178805
0.14738194 0.06952153 0.19198336
0.21397587 0.17079937 0.19995397
0.18311826 -0.12584321 0.17660807
0.12097861 -0.18095281 0.17227091
0.04799088 -0.14748900 0.17490453
0.07619975 -0.08033780 0.18018936
0.15951106 -0.16139883 0.17380982
0.16810815 0.07128240 0.19212194
0.07184486 -0.33947031 0.15979552
0.13744916 -0.05518241 0.18216910
0.17059306 -0.08623714 0.17972508
0.20852108 0.06571604 0.19168387
0.02307185 -0.20845553 0.17010644
0.00398816 -0.24099591 0.16754550
0.14744343 0.01320855 0.18755150
0.09165240 -0.03556300 0.18371316
0.08525334 -0.11216836 0.17768428
0.04927253 -0.19385663 0.17125538
0.15628553 -0.20564472 0.17032765
-0.08341684 -0.30925027 0.16217385
0.09627496 -0.09939254 0.17868975
0.16437733 -0.00413270 0.18618674
0.14445378 -0.22038297 0.16916774
0.15984542 -0.41483407 0.15386435
0.08255144 -0.16490820 0.17353363
0.10167744 -0.20788003 0.17015173
-0.09937239 -0.35663285 0.15844482
0.16528895 -0.41181230 0.15410217
0.14309434 -0.02607733 0.18445969
0.17786377 0.02113792 0.18817555
0.10522131 -0.05176552 0.18243801
-0.09442456 -0.36137085 0.15807193
0.11868695 -0.11134914 0.17774876
-0.10924411 -0.38254564 0.15640547
0.04235679 -0.16831240 0.17326572
-0.12154808 -0.40542753 0.15460465
-0.06033480 -0.41702663 0.15369180
0.06157720 -0.26289724 0.16582185
0.02326612 -0.31042585 0.16208133
0.19980162 0.10704010 0.19493609
0.07521665 -0.05916585 0.18185560
-0.08733766 -0.36786732 0.15756066
0.14278686 -0.17526819 0.17271830
-0.09741710 -0.41389469 0.15393828
0.19037255 -0.15521667 0.17429636
-0.03417501 -0.23161226 0.16828399
0.11911568 -0.12161824 0.17694057
0.12838581 -0.06398683 0.18147619
-0.07289278 -0.38727051 0.15603362
0.17044970 -0.21809939 0.16934746
0.02631507 -0.21268866 0.16977329
0.08020137 -0.30769340 0.16229637
0.14537095 -0.38732751 0.15602913
0.11680153 -0.22859509 0.16852145
0.14163948 -0.10671319 0.17811361
0.03245863 -0.19274899 0.17134255
0.15056484 0.07809130 0.19265780
0.06483765 -0.16867799 0.17323695
0.14903328 -0.16129506 0.17381799
0.16362124 -0.31242499 0.16192399
0.07455724 -0.13400027 0.17596610
0.17048907 -0.32298494 0.16109292
0.19360535 0.11812653 0.19580860
0.00742941 -0.20384055 0.17046964
0.16879890 -0.15501569 0.17431218
0.02190490 -0.22301020 0.16896098
0.16958040 -0.06487654 0.18140617
0.16883407 -0.07313324 0.18075636
0.15068859 -0.28102077 0.16439552
0.18511068 0.05164135 0.19057618
0.09529567 -0.26060628 0.16600215
0.09954642 -0.07006046 0.18099819
0.13342744 -0.23291400 0.16818155
0.10416092 -0.33107614 0.16045614
0.10763077 -0.09836808 0.17877037
0.00085409 -0.16325188 0.17366399
0.04127362 -0.13772603 0.17567288
-0.11299253 -0.36424241 0.15784594
0.05779195 -0.30374947 0.16260676
0.18832163 -0.07060610 0.18095525
0.21089096 0.11268540 0.19538038
0.13309054 -0.09550615 0.17899561
0.14237937 -0.31577586 0.16166028
-0.11747367 -0.34847173 0.15908710
0.09662038 -0.30486953 0.16251861
0.07139084 -0.42217274 0.15328680
-0.01530217 -0.32145571 0.16121327
-0.07067591 -0.31846352 0.16144876
0.13512920 0.00393926 0.18682201
0.16014168 -0.11883469 0.17715964
-0.00926927 -0.35195433 0.15881302
0.18896746 0.07685530 0.19256053
-0.10808917 -0.36047974 0.15814206
-0.06567550 -0.37910179 0.15667650
0.16435112 -0.16036160 0.17389145
-0.04405245 -0.40901209 0.15432255
0.06315627 -0.11486627 0.17747196
0.03785791 -0.13194306 0.17612800
0.11828412 -0.29973151 0.16292298
0.13917047 0.00121351 0.18660749
0.10059408 -0.29594863 0.16322069
0.02510094 -0.33485289 0.16015891
0.01632667 -0.42511858 0.15305496
0.14526473 0.02470911 0.18845660
0.00696253 -0.31127792 0.16201427
-0.07659326 -0.35303121 0.15872827
-0.03693925 -0.36666622 0.15765518
0.09895763 -0.33739724 0.15995867
-0.10745519 -0.41880969 0.15355147
0.11362861 -0.17287842 0.17290637
0.14469659 -0.00574627 0.18605975
0.17068251 -0.06114996 0.18169945
0.12337679 -0.08834312 0.17955934
0.10579236 -0.41564920 0.15380020
-0.00742409 -0.39269111 0.15560701
0.11606215 -0.18800592 0.17171583
-0.09409354 -0.38036161 0.15657735
0.12594031 -0.28724126 0.16390597
-0.13613220 -0.41046797 0.15420797
-0.05943969 -0.38532829 0.15618647
0.16107480 -0.30113189 0.16281277
-0.01013981 -0.22214717 0.16902890
-0.01592087 -0.18886011 0.17164861
0.11951075 -0.21931414 0.16925186
0.12938807 -0.17244626 0.17294038
0.16842417 -0.22813607 0.16855757
0.10020061 -0.20725740 0.17020073
0.07905487 -0.32560598 0.16088664
0.09228822 -0.40321984 0.15477840
0.02650235 -0.21413888 0.16965915
0.19618578 0.14312782 0.19777621
0.17885468 0.01373494 0.18759293
0.09521718 -0.00367249 0.18622296
-0.06977891 -0.32356820 0.16104702
0.11998828 -0.00656728 0.18599513
0.16340340 -0.02722284 0.18436953
0.09291447 -0.22780385 0.16858372
0.06224955 -0.32779047 0.16071472
0.10898997 -0.26843159 0.16538629
-0.16155132 -0.41944139 0.15350175
0.18979423 -0.09049927 0.17938965
0.00758966 -0.38904577 0.15589390
0.07907034 -0.30986832 0.16212520
0.14558154 -0.05712059 0.18201657
-0.05680018 -0.39279932 0.15559850
0.18429452 -0.03757447 0.18355485
0.11506377 -0.08741465 0.17963241
0.17126268 0.01524435 0.18771172
-0.01783598 -0.19676511 0.17102648
0.10510897 -0.11142740 0.17774260
0.08392586 -0.31233267 0.16193126
-0.11751830 -0.38711386 0.15604595
0.15504071 -0.02230642 0.18475646
0.02403472 -0.12566374 0.17662219
0.04144841 -0.31992364 0.16133385
0.12651860 -0.09111315 0.17934134
0.07363525 -0.30049516 0.16286288
0.18964370 -0.04753400 0.18277103
0.14051181 -0.25074189 0.16677848
0.00859586 -0.31896399 0.16140937
0.09569167 -0.00603054 0.18603738
-0.01075190 -0.22340302 0.16893006
0.14070760 0.01987729 0.18807633
0.16489573 -0.42464671 0.15309209
0.02413731 -0.37400795 0.15707739
-0.01445153 -0.39353414 0.15554067
0.02130301 -0.23446269 0.16805966
-0.13518070 -0.42289339 0.15323008
0.05765028 -0.13243315 0.17608943
-0.12277047 -0.42709915 0.15289908
0.15203434 -0.14867327 0.17481133
0.04477536 -0.26693493 0.16550408
0.12790658 -0.27613546 0.16478000
-0.03829338 -0.37577081 0.15693865
0.15651753 -0.25960681 0.16608081
0.09871957 -0.30713498 0.16234032
0.11666721 -0.11939540 0.17711551
0.02651020 -0.42793375 0.15283340
0.14494316 -0.07470740 0.18063248
0.08662137 -0.23649230 0.16789993
0.11195859 -0.01706126 0.18516925
0.05597192 -0.26782568 0.16543398
0.18301865 -0.20657595 0.17025436
0.16274996 -0.12151422 0.17694876
0.15408020 0.06084715 0.19130068
0.20767013 0.03454550 0.18923073
0.15641012 -0.03963762 0.18339248
0.02142564 -0.28808587 0.16383949
0.12814501 -0.04111966 0.18327585
0.19006537 -0.08871398 0.17953015
0.17720561 0.09806735 0.19422993
0.06578554 -0.34372857 0.15946039
0.15984833 -0.32408653 0.16100622
0.08128902 -0.14120216 0.17539931
0.16702476 -0.03949706 0.18340355
0.12766548 -0.30136800 0.16279418
0.14697391 -0.32689204 0.16078543
0.02592942 -0.36624865 0.15768805
0.06705786 -0.20255699 0.17057065
-0.09222156 -0.38343682 0.15633533
0.06199582 -0.10852304 0.17797117
0.12850180 -0.18058343 0.17229998
-0.05731838 -0.32937133 0.16059031
0.09135729 -0.30490620 0.16251573
0.08588796 -0.21291443 0.16975552
0.11289570 -0.05823943 0.18192851
0.15451267 -0.37739034 0.15681119
0.09463131 -0.14321161 0.17524116
0.09463632 -0.29286521 0.16346336
0.00079162 -0.31405162 0.16179598
0.12657715 -0.34997869 0.15896850
0.08463571 -0.06286747 0.18156428
-0.05378347 -0.34456772 0.15939435
-0.06114657 -0.36816377 0.15753733
-0.11841159 -0.41302044 0.15400709
0.09540080 -0.30365652 0.16261408
0.05338946 -0.33362650 0.16025542
0.19347312 -0.05691566 0.18203269
0.08427276 -0.29924828 0.16296101
0.14657973 -0.32911710 0.16061032
-0.00515190 -0.22477273 0.16882227
-0.03250363 -0.34004281 0.15975046
0.21104540 0.13849275 0.19741142
0.14313845 0.07222023 0.19219575
0.18649772 -0.14885059 0.17479737
0.07933796 -0.12834408 0.17641124
-0.01207974 -0.20168082 0.17063961
0.00378321 -0.30629932 0.16240609
0.03518995 -0.14670420 0.17496629
0.15392265 -0.39311586 0.15557359
-0.12626844 -0.42656963 0.15294076
-0.07842831 -0.39116768 0.15572691
0.14690028 -0.18168337 0.17221342
0.06015122 -0.18416546 0.17201808
0.15213903 -0.08382583 0.17991485
-0.03164850 -0.37652407 0.15687937
-0.08173097 -0.38757874 0.15600936
0.12687051 -0.41295224 0.15401245
0.03910303 -0.39085367 0.15575162
0.10587210 -0.23378504 0.16811299
0.21394111 0.16096300 0.19917984
0.01450496 -0.16372565 0.17362670
0.10090085 -0.40794291 0.15440669
0.05422897 -0.07157081 0.18087933
0.15168979 -0.36961309 0.15742326
-0.10053364 -0.35853942 0.15829477
0.18855702 -0.02563320 0.18449464
0.11785391 -0.05449181 0.18222345
0.09000104 -0.28867449 0.16379317
0.10515018 -0.02497284 0.18454661
0.17960511 0.06649197 0.19174493
0.18349203 0.07818329 0.19266504
0.01033389 -0.41114652 0.15415456
0.08777151 -0.05108982 0.18249119
-0.04370754 -0.32249491 0.16113149
0.00443128 -0.20050014 0.17073253
-0.04498437 -0.41587090 0.15378275
0.14542539 -0.14814711 0.17485274
0.17213897 -0.06930275 0.18105782
0.15253339 -0.00440169 0.18616557
0.16223042 -0.01401291 0.18540916
0.04053852 -0.34868919 0.15906998
0.12045780 -0.05371910 0.18228426
0.17808869 0.06509193 0.19163475
0.09101378 -0.17259860 0.17292839
0.17295808 -0.05734971 0.18199853
0.00556909 -0.39193357 0.15566663
-0.07469213 -0.36300446 0.15794337
0.19062574 -0.06388874 0.18148391
0.00584560 -0.24560508 0.16718275
0.04068326 -0.36163546 0.15805111
-0.06503805 -0.34832292 0.15909881
0.12211941 -0.01840464 0.18506353
0.13967103 0.05790310 0.19106898
0.02648903 -0.34509203 0.15935308
0.13673592 -0.38400130 0.15629091
0.18431686 -0.09985107 0.17865366
0.11837524 -0.25913810 0.16611770
0.02322790 -0.28948298 0.16372954
0.12069816 0.00309649 0.18675568
