# .PCD v0.7 - Point Cloud Data file format
VERSION 0.7
FIELDS x y z
SIZE 4 4 4
TYPE F F F
COUNT 1 1 1
WIDTH 1418
HEIGHT 1
VIEWPOINT 0 1 0 0 0 0 0
POINTS 1418
DATA ascii
0.13345868 0.04323127 -0.31149101
-0.02861619 0.01145520 -0.015517
-0.17907705 -0.11972388 -0.001356
0.07123621 -0.38306573 -0.32494399
0.31250638 -0.09040780 -0.304764
0.09149152 0.03437924 0.003659
-0.0558977 -0.38064730 -0.32494399
0.31578663 0.21928599 -0.08498568
0.17823971 0.01759600 -0.001356
0.00557237 0.03580015 0.00765965
-0.15434629 0.08843387 -0.31149101
-0.29826422 0.12317792 0.00828433
-0.09869846 -0.35464072 -0.058119
-0.25960694 0.02322616 -0.001356
-0.01300331 0.14443301 0.003659
0.04312551 0.22370775 -0.002064
0.325454 -0.01640293 -0.08952831
-0.32122359 -0.32138427 -0.058119
0.31648499 0.14916702 -0.04099368
-0.05143026 -0.26108125 -0.002064
0.19044392 0.19421832 0.003659
-0.30153419 -0.15923019 0.003659
0.11066289 -0.20929097 0.003659
0.15759856 -0.28073099 -0.31241629
-0.01062852 0.18709505 -0.32494399
0.18848194 0.22937500 0.00447635
-0.26119834 -0.28297299 -0.15344375
-0.064694 0.08583264 0.0284496
-0.046756 -0.12472178 -0.01310747
-0.04704831 -0.28297299 -0.07712565
-0.3016896 -0.28502923 -0.304764
0.31648499 -0.09032121 -0.27775436
0.1543598 -0.29698390 -0.015517
-0.16894147 -0.07594482 -0.31149101
-0.29856648 0.23273900 -0.31526053
-0.365152 -0.13942275 -0.25364139
0.08380371 0.13465811 -0.31149101
0.16233883 -0.14100022 0.003659
-0.2349149 0.23273900 -0.00358539
-0.05792133 0.10996339 -0.002064
-0.18854311 -0.23658946 -0.001356
0.303031 -0.20630268 -0.00352878
-0.06175591 -0.28297299 -0.19567015
0.17580337 -0.14767290 -0.31149101
0.12064714 0.19928300 0.00838715
-0.25608864 -0.23652711 -0.31149101
0.21296312 0.09235459 -0.015517
-0.02888929 0.02311278 0.00752371
-0.10179438 -0.21870562 -0.304764
-0.04926764 -0.12180667 -0.304764
-0.00051921 -0.06986738 -0.015517
0.31648499 0.09902800 -0.18610341
0.12777304 0.21871326 -0.002064
-0.23861346 0.01342931 -0.304764
-0.35588021 0.21928599 -0.12590665
0.05772744 0.22067560 0.00762612
-0.32994465 -0.30539501 -0.01219095
-0.35618299 0.17570999 -0.1177989
0.325454 0.13630775 -0.29042554
-0.09681409 0.10962538 -0.31149101
-0.10876012 -0.26708680 -0.002064
-0.14160263 -0.10821623 0.003659
-0.0317639 0.06885539 -0.31149101
-0.23231549 -0.27848899 -0.01178707
-0.04511524 -0.09280551 -0.002064
-0.35618299 0.02705787 -0.23515187
-0.08328739 0.00291677 -0.001356
0.325454 0.05950639 -0.31260283
0.1361029 -0.14722847 -0.304764
-0.23960917 0.10949185 -0.002064
0.2361342 -0.28297299 -0.19480618
-0.34861005 0.00890019 -0.015517
-0.04653824 0.21497411 -0.015517
0.18387147 -0.28579807 -0.015517
-0.31835495 -0.03729869 -0.31149101
-0.01985231 0.04801852 -0.002064
-0.31692578 0.15580121 0.003658
-0.06654805 0.20583200 -0.01409057
0.31648499 0.05100877 -0.24705184
0.31648499 0.17816300 -0.27633678
-0.28069807 -0.28297299 -0.2354069
-0.04587819 -0.02948642 -0.002064
-0.14878243 -0.17828570 -0.31149101
0.28028497 0.20102200 -0.304764
-0.365152 0.19114901 -0.16205701
0.21779329 -0.25015218 0.003658
-0.19542638 -0.25703033 -0.31149101
-0.09083864 0.12646911 -0.002064
-0.36627299 -0.00569371 0.00444276
0.31648499 0.07567042 -0.20334259
0.00182193 0.19244209 -0.015517
0.24987466 0.13878490 -0.001356
0.13065101 -0.28227140 -0.32494399
0.325454 -0.02296572 -0.27192993
-0.36627299 0.17284620 0.00610365
0.01317754 -0.35846155 -0.058119
0.08596708 -0.28297299 -0.04409653
-0.32294004 -0.29971321 -0.32494399
0.03792889 0.03185826 -0.304764
-0.17682078 -0.31694605 -0.058119
0.31648499 0.22442301 -0.22595261
-0.30261633 -0.25132560 -0.304764
-0.35618299 0.12637779 -0.10647539
0.2329207 -0.10062709 -0.001356
-0.22336883 0.05152888 -0.304764
-0.11193829 -0.30327480 -0.058119
-0.365152 -0.36729617 -0.31178402
-0.04643247 -0.12479019 -0.002064
0.26514619 0.01497806 -0.31149101
-0.12193061 -0.11073930 -0.31149101
0.23661106 -0.12659220 -0.304764
0.26312515 -0.28297299 -0.25476391
-0.16513781 -0.13419831 -0.31149101
-0.00593507 0.11122847 0.006377
-0.263505 -0.05412679 -0.304764
-0.29631136 0.02672646 -0.001356
-0.30775981 -0.14253949 0.003658
0.14178206 0.04004717 -0.31149101
-0.365152 0.10906372 -0.17053271
-0.03488384 -0.26816912 -0.015517
0.08097481 0.21751109 0.00764658
-0.365152 0.14058739 -0.05367879
0.00134211 -0.32682802 -0.32494399
0.04419115 0.16229924 -0.001356
-0.12385631 0.19300461 0.003659
-0.365152 0.22266594 -0.20023606
0.24171623 -0.24133247 -0.31149101
-0.22025818 0.13227643 -0.002064
-0.19467938 -0.25761538 -0.31149101
0.07188727 -0.02239868 -0.001356
-0.02932379 -0.34952352 -0.058119
0.08268588 -0.16201171 -0.304764
-0.365152 -0.31617637 -0.11972175
0.325454 -0.35038022 -0.0704191
-0.09454813 0.01113402 -0.001356
-0.35618299 -0.27658630 -0.17241471
0.325454 -0.28331943 -0.11161918
-0.365152 -0.35003849 -0.31120399
-0.36622848 -0.08415828 -0.00109121
-0.35618299 -0.16448694 -0.22213027
0.11435764 -0.31334429 -0.32494399
-0.09325241 0.08656496 0.02012512
-0.30938818 -0.28297299 -0.26399009
0.0205359 0.07113983 -0.304764
0.325454 0.21204744 -0.18787075
-0.21215879 -0.07509110 -0.31149101
0.2039206 0.09337819 0.00762074
0.28351393 0.21777405 -0.015517
-0.23718028 0.22466180 -0.31149101
0.31648499 0.07690036 -0.07577959
0.09924136 -0.08178630 -0.304764
-0.35618299 -0.08387148 -0.26968352
-0.15778493 -0.05901480 -0.304764
-0.25627821 -0.19689460 -0.31149101
-0.27710369 0.05290613 -0.001356
0.03363695 -0.17089409 0.003658
-0.29479821 0.10828412 -0.015517
-0.09750772 0.08604510 -0.304764
-0.2189484 -0.01804127 -0.304764
-0.12588387 0.20385612 -0.002064
0.08778178 -0.28152926 0.00762256
-0.34582368 -0.08116670 -0.304764
-0.24768794 -0.30203199 0.00587987
0.22802378 -0.03005596 -0.31149101
-0.31260834 0.01191722 -0.31149101
0.11655973 -0.04418031 -0.001356
-0.32649856 -0.20643631 -0.304764
-0.03365237 0.00351348 -0.002064
0.04454417 0.12394957 0.00844002
0.0389613 -0.19560146 -0.001356
-0.323054 0.17663570 0.003658
-0.19837657 0.09155873 -0.002064
0.31648499 0.15575053 -0.09033191
-0.07254511 0.21164676 -0.002064
-0.2810743 0.20670430 0.00970183
-0.35109425 -0.13062038 0.00762529
-0.12379165 -0.22994897 0.003659
-0.23337393 -0.32145681 -0.058119
0.325454 -0.01866102 -0.28824614
0.0077674 0.00966005 0.00784442
-0.023213 -0.00660948 0.0007782
-0.32647639 -0.00802244 -0.304764
-0.34137707 0.10378957 -0.002064
-0.31617751 0.21645959 -0.002064
0.28443235 0.21031700 -0.16636085
0.325454 -0.13779630 -0.27251404
-0.365152 -0.13714664 -0.2507419
-0.35618299 -0.27469877 -0.0708522
0.303031 -0.13325192 -0.00312808
-0.365152 0.18137101 -0.04034078
0.325454 -0.04935972 -0.11025316
-0.04996799 0.17165547 -0.31149101
-0.17390812 0.17493102 0.003659
0.07543009 0.17494093 0.003659
-0.04561682 0.00186058 -0.002064
-0.22319315 0.17310664 -0.001356
-0.03744591 -0.28297299 -0.25025093
0.05810469 -0.28073099 -0.31714342
0.31648499 -0.09016212 -0.23687894
-0.33878206 -0.18391860 -0.304764
-0.24222831 -0.30539501 -0.00690246
0.04356583 -0.26836299 -0.002064
-0.01173558 -0.25020584 -0.002064
-0.00419393 -0.06550008 -0.015517
-0.32751937 0.20359223 0.01084963
-0.07186024 -0.06077008 -0.001356
-0.35618299 -0.06199114 -0.26595654
0.30479264 -0.25497975 -0.31149101
0.326574 -0.15267530 -0.00068674
-0.03289195 0.00777679 0.00762811
-0.16360274 0.11239285 0.00762952
-0.35618299 0.07962384 -0.14567041
-0.0718919 -0.08828432 0.003658
0.03534898 0.05920300 0.00479757
0.31533539 -0.18354911 -0.304764
-0.14213985 0.19302072 -0.32494399
0.15345349 0.18325227 -0.304764
-0.35618299 -0.25587684 -0.23802196
-0.35618299 -0.01546569 -0.06519617
-0.365152 -0.30619240 -0.21580876
-0.2963137 -0.20905974 0.003659
-0.35618299 0.08429701 -0.05643315
0.325454 -0.02041953 -0.04724498
-0.0828994 0.13162352 -0.304764
-0.365152 -0.08942436 -0.04037721
-0.02046479 0.20922623 -0.002064
-0.20308975 0.19516930 0.003658
0.31648499 0.06279364 -0.21640787
0.32993799 -0.19650181 -0.00985475
-0.15369231 0.08923600 -0.00480445
-0.29379636 -0.04196029 -0.304764
0.24998131 0.22285866 -0.002064
0.0935248 -0.18858066 0.003659
-0.10410609 0.07089472 0.00854171
0.05440343 0.21402268 -0.002064
-0.02849143 -0.14868009 -0.002064
0.2914885 -0.03267805 -0.304764
0.00727166 -0.04481110 -0.002064
0.11027506 0.14885168 -0.304764
-0.365152 -0.15732028 -0.12624468
0.325454 0.17169822 -0.13792466
0.01042272 -0.17271043 -0.002064
0.325454 -0.07302728 -0.11913549
0.28645101 -0.24401089 0.00573253
-0.26582855 0.09612132 -0.002064
0.3065047 0.20601530 -0.015517
0.31648499 -0.14950524 -0.15982775
0.28645542 0.01122249 -0.304764
-0.02918979 0.14622703 -0.002064
-0.20370098 0.13159040 -0.002064
0.18507019 -0.34491840 -0.32494399
0.26267099 0.21603425 -0.25684759
-0.07083572 -0.29813197 0.00754791
-0.16729438 -0.10523251 0.003659
0.0325919 0.20605646 -0.002064
0.31648499 -0.05901895 -0.19219345
0.2159361 -0.28216073 -0.002064
-0.30683171 0.21928599 -0.07880151
0.31648499 -0.28435695 -0.13918878
-0.36292741 0.01584780 -0.32494399
-0.11838026 0.18442404 0.003659
-0.36309541 0.01384281 -0.002064
-0.35618299 -0.20331416 -0.19869284
-0.33806807 0.06549682 -0.304764
0.09561765 -0.24166729 -0.304764
-0.32515954 -0.28297299 -0.23734977
0.22986539 -0.09473635 -0.31149101
-0.26774691 -0.21376403 -0.001356
-0.365152 -0.01468995 -0.28825071
-0.29906544 -0.13438895 -0.304764
0.325454 -0.17892466 -0.12740993
0.31648499 -0.08918786 -0.20551114
0.31648499 0.08440166 -0.29252327
-0.36963701 -0.07748340 -0.01247423
-0.34052598 -0.14860766 -0.002064
-0.365152 -0.24275090 -0.14766923
-0.365152 0.05979571 -0.06002325
0.31648499 -0.25143849 -0.13525102
-0.20241769 0.07247680 -0.002064
0.325454 -0.32998967 -0.07636196
0.29958363 -0.28297299 -0.19870802
0.09833659 0.12544881 -0.304764
-0.24421707 -0.07347607 -0.001356
0.16990845 0.21695844 -0.32494399
-0.24900883 -0.12243127 -0.31149101
-0.33358471 0.21579879 -0.015517
-0.2847272 -0.16598357 0.003659
0.04850931 0.03980971 -0.001356
0.16722287 -0.18895499 -0.304764
-0.30486847 -0.06146914 -0.31149101
0.09614284 -0.28297299 -0.09647666
-0.07527865 -0.35569611 -0.058119
-0.32325656 -0.31525535 -0.058119
-0.30264357 -0.11638270 0.003659
0.31648499 0.13692570 -0.11996312
0.07604663 0.09273135 0.0076297
-0.27137306 0.00489391 -0.31149101
0.0323311 -0.28297299 -0.06734911
-0.25271488 0.13350126 0.01137263
-0.35795608 -0.30539501 -0.00637438
0.04929145 -0.10946340 -0.304764
0.07814822 0.10346104 -0.002064
0.1281614 -0.28297299 -0.2662596
0.27868657 0.20070886 -0.32494399
-0.365152 -0.09920198 -0.16702992
0.21878206 -0.31654962 -0.058119
0.325454 -0.34785543 -0.28095358
-0.33488181 -0.28297299 -0.11619446
0.26040189 0.20513648 -0.304764
0.01449568 -0.28297299 -0.04561653
0.07283601 -0.22496198 0.003659
0.325454 -0.10187440 -0.12738887
-0.32504622 0.21031700 -0.22689016
-0.35099857 -0.04466528 -0.015517
-0.07720114 -0.30203199 0.00648645
-0.09825231 0.09192237 -0.002064
-0.05474424 0.12213990 -0.002064
-0.365152 0.20927986 -0.16366534
0.31648499 -0.29727872 -0.01718908
-0.05555724 -0.21159879 0.00958414
-0.32289682 -0.28297299 -0.17060405
0.28440897 -0.20570632 -0.001356
-0.25953938 -0.28435337 0.00762401
0.10616011 0.14570064 -0.001356
0.31648499 0.22461054 -0.16132978
-0.07032884 -0.28297299 -0.14906886
0.325454 -0.07800838 -0.25184899
-0.35618299 -0.10775082 -0.04547729
-0.08311761 -0.29589430 -0.058119
0.08833024 -0.02776073 -0.001356
0.325454 0.21962868 -0.16227383
-0.365152 0.08973122 -0.0282358
-0.365152 -0.03612348 -0.11340702
0.22196256 -0.28297299 -0.02522131
0.11884543 -0.03070454 0.003659
-0.13398506 -0.15709253 -0.001356
0.18385137 -0.22082547 -0.304764
0.03185361 -0.00608099 -0.304764
-0.365152 0.07344061 -0.04266544
-0.02737 0.08195369 0.00668859
0.3018284 0.21928599 -0.1995311
0.22742371 -0.30539501 -0.00464805
-0.023213 0.07962645 0.00150792
-0.35618299 -0.25459646 -0.05332344
0.26267099 0.21646987 -0.19755382
-0.15410121 0.00212382 -0.31149101
-0.11922856 -0.04323025 0.003659
0.023637 -0.01363097 0.00495056
0.16645319 -0.32710399 -0.32494399
-0.17990116 0.22038474 -0.32494399
0.09579057 -0.30751258 -0.058119
0.28166872 0.21031700 -0.24511336
0.22136723 0.20583200 -0.00671538
-0.00127544 -0.07328711 -0.002064
0.31648499 0.15961008 -0.21449901
0.21878298 0.13639465 0.003658
-0.14242923 -0.28297299 -0.08255592
-0.14439833 0.19928300 -0.00146605
0.18051721 -0.28297299 -0.14287048
0.325454 0.00101463 -0.11988754
0.325454 0.13467391 -0.1753886
-0.365152 -0.18172188 -0.23642967
0.325454 -0.38561826 -0.32435386
-0.03179412 0.07725837 -0.304764
0.00300962 -0.22199755 -0.015517
0.007057 -0.27355038 -0.01103595
-0.35618299 0.06751533 -0.18131536
0.20011748 -0.32852551 -0.32494399
0.29424351 0.08351734 -0.304764
0.31648499 -0.08464802 -0.03633655
-0.35618299 0.15966666 -0.03584395
-0.34856814 0.16535650 -0.31149101
-0.27353369 0.01890660 -0.31149101
-0.23614645 0.12526564 -0.304764
-0.365152 0.01259384 -0.19895146
-0.03568775 0.23273900 -0.31811198
-0.03109176 -0.28297299 -0.10932427
-0.35618299 0.13203324 -0.30947139
-0.31967265 0.21928599 -0.09802738
0.2639354 -0.18130716 -0.31149101
0.14967266 -0.07454569 -0.304764
-0.00900529 0.20240155 -0.015517
-0.18443797 -0.28073099 -0.32212336
-0.365152 0.21690648 -0.04901067
-0.23458974 -0.33679832 -0.058119
0.15186671 -0.28202981 -0.002064
-0.11656428 -0.28297299 -0.14554816
0.32133112 0.08961208 0.006377
-0.35618299 -0.11460915 -0.13271959
-0.27810312 -0.12499577 0.003659
0.11348831 -0.19135949 0.003659
0.24130842 -0.32040753 -0.058119
0.03736387 0.22245031 -0.31149101
-0.365152 -0.36905439 -0.09729265
0.325454 0.07644214 -0.15318408
-0.25238161 -0.05681783 -0.001356
0.28825601 -0.28297299 -0.22392929
0.28645101 0.02774591 0.00546708
0.09462977 0.14486458 -0.304764
0.325454 0.09071974 -0.23832934
0.01437551 0.11006219 0.0073507
-0.24543507 -0.28297299 -0.29940279
0.22294843 0.17390913 -0.001356
0.07380626 0.01068460 0.003659
-0.02391651 0.06110612 0.00796774
-0.11763404 0.13258504 -0.304764
-0.365152 0.10332784 -0.24046886
0.325454 -0.09991070 -0.13502359
-0.04306649 0.03975965 -0.31149101
0.31648499 0.12315150 -0.31366387
-0.33965193 -0.00352504 -0.31149101
0.31648499 -0.22233414 -0.03329189
0.00075049 0.22098002 -0.32494399
-0.34980022 0.22077493 -0.32494399
-0.13209021 -0.02722975 -0.31149101
0.29760713 -0.13304670 -0.31149101
0.12338404 -0.16405680 -0.304764
0.31648499 0.15956973 -0.16960086
-0.35571024 0.04252114 -0.002064
0.30316011 -0.11462593 -0.002064
0.03346553 0.08588412 -0.304764
-0.09238448 0.12333187 -0.31149101
0.28739866 -0.24366794 0.0108218
0.07339527 0.22510200 -0.32494399
-0.22707712 -0.33754898 -0.058119
-0.05295326 -0.28297299 -0.27749982
-0.35618299 0.19117969 -0.25727096
0.04389974 -0.04152485 0.003659
-0.09677747 -0.03849866 -0.001356
0.1823456 0.01788033 0.003659
-0.365152 -0.18211279 -0.30628388
-0.22777432 0.13113706 -0.31149101
-0.21162026 -0.19678036 0.003659
0.325454 -0.37673385 -0.18782764
-0.365152 -0.26509174 -0.09610861
0.23043463 -0.03060283 -0.001356
-0.365152 -0.25115896 -0.01719383
0.325454 -0.37980738 -0.12555461
0.325454 0.01180278 -0.09086381
-0.14923309 -0.02229832 0.003659
0.1338861 0.01950982 -0.304764
0.29323321 -0.01937145 -0.304764
0.21846238 0.12635407 0.00900165
0.31648499 -0.15965235 -0.30504251
-0.2346045 -0.23388262 -0.304764
0.26267099 0.21605393 -0.12393983
-0.17623162 0.20909561 0.00899619
0.31648499 -0.03441823 -0.15565511
-0.35618299 -0.09996942 -0.12924741
0.24169636 -0.30730246 -0.058119
0.27200439 -0.28297299 -0.29344739
-0.1844499 0.20073121 0.01112063
-0.2574958 -0.04245652 0.003659
-0.25175552 -0.24544131 -0.304764
0.24431494 -0.22515520 -0.304764
0.04749012 -0.30422991 -0.32494399
0.22357539 -0.26956120 -0.002064
0.325454 -0.12208428 -0.10106293
0.16893913 -0.05996237 -0.001356
0.325454 -0.25243654 -0.14301437
0.26267099 0.21918257 -0.16461074
-0.07257454 0.21495201 -0.002064
0.11549985 -0.21644588 0.003659
0.26156245 -0.03724753 -0.001356
-0.2540888 0.08897281 -0.002064
-0.28599893 -0.28297299 -0.02695417
0.00508681 0.18932579 -0.001356
0.15932931 0.04688531 0.003658
-0.11460886 -0.07264991 -0.31149101
0.31648499 0.22557482 -0.16084973
-0.28335567 0.02664132 -0.31149101
0.00789405 0.15653051 0.003659
0.29326179 -0.03969191 0.0099027
0.17416773 0.15541221 -0.001356
-0.07491413 -0.31363451 -0.058119
0.00933319 -0.01367338 -0.304764
-0.365152 0.03431951 -0.06070571
-0.03165856 0.03435821 -0.002064
-0.16360208 0.01209342 0.003659
-0.07476032 0.11902545 0.00773564
-0.17438645 -0.29523688 0.0076296
0.31648499 0.04157291 -0.09999215
-0.1578594 -0.28297299 -0.21973834
0.30967593 0.21031700 -0.12270295
0.0994924 0.06141199 -0.31149101
-0.25961024 -0.28297299 -0.14751723
-0.35618299 -0.14080885 -0.21160451
-0.35618299 -0.26766648 -0.26601622
-0.06479083 0.20035053 -0.304764
0.325454 0.16036638 -0.28239316
0.28190308 -0.16829949 -0.304764
-0.08982009 -0.15213023 -0.31149101
-0.19523169 -0.25818102 -0.31149101
0.07830053 -0.28297299 -0.19240952
-0.27450784 -0.16196823 0.003659
0.04035907 -0.29362952 -0.002064
-0.08696375 0.09737372 -0.31149101
0.13755368 0.22020748 0.00762544
0.31648499 0.06294377 -0.19430798
-0.34272999 -0.16235567 -0.0030247
-0.24276993 0.20943379 -0.304764
0.31648499 -0.07238964 -0.18086595
0.27976738 0.21031700 -0.08567403
-0.34003451 -0.17549731 -0.002064
0.31158088 -0.29678456 -0.002064
0.14076638 0.17558085 -0.31149101
0.31648499 -0.04659268 -0.03480526
-0.365152 -0.07761680 -0.28296457
0.21730198 -0.24021202 -0.304764
0.21597262 -0.25119757 0.003658
0.06459989 -0.02845532 -0.31149101
-0.24647665 0.16602020 -0.31149101
-0.0381228 0.12822836 -0.304764
0.31648499 0.07890749 -0.18997069
-0.13215901 0.11614300 -0.00591163
0.27262231 -0.30968545 -0.058119
0.21260308 -0.03254050 -0.001356
-0.33814416 -0.27685469 0.0079741
-0.20971752 -0.28737657 0.00762556
-0.21278088 -0.36485629 -0.32494399
0.325454 -0.20533642 -0.22947629
0.31648499 -0.16517317 -0.27487523
-0.27822728 -0.28073099 -0.31163365
0.28633715 -0.22396043 -0.304764
0.00028728 -0.20264108 -0.304764
0.30193056 0.19775830 -0.31149101
0.05875984 -0.33663189 -0.058119
-0.17891055 -0.06790612 -0.304764
0.18715254 0.22685398 -0.002064
-0.35618299 0.20106660 -0.06334085
-0.365152 -0.04608438 -0.16503005
-0.26871001 -0.28297299 -0.08640559
-0.25921175 -0.13403283 -0.304764
0.17286873 -0.16759468 -0.001356
0.10831433 -0.28297299 -0.2624492
0.07780782 0.08438752 -0.002064
-0.063336 0.01001723 0.00448426
-0.365152 -0.19015856 -0.06318657
0.31600398 -0.35089303 -0.058119
0.01444874 -0.29003901 -0.015517
-0.35618299 0.19648927 -0.12927156
0.28156393 0.15110348 -0.001356
-0.35618299 0.01190608 -0.15253406
-0.365152 -0.18050916 -0.19638117
0.31648499 -0.20842861 -0.18458407
0.15850063 0.06469524 -0.002064
-0.31434995 -0.28297299 -0.28106489
-0.365152 -0.30422937 -0.17860303
-0.365152 -0.14682529 -0.12691916
-0.02632263 -0.00055513 -0.015517
-0.20959703 -0.23336442 -0.31149101
-0.31007083 -0.11261098 -0.304764
-0.15071962 -0.01314145 -0.31149101
0.25300117 0.04187441 0.003659
-0.35618299 -0.12140289 -0.23842218
-0.09067577 0.03008427 0.003659
-0.21259707 -0.26227898 0.01013965
-0.24278971 0.22394200 0.0065851
0.12792418 0.10605300 0.00054358
-0.08736085 0.17930641 -0.304764
-0.36963701 -0.20126483 -0.01330522
0.30452296 -0.29436965 -0.32494399
0.21512809 0.04998644 -0.001356
-0.04362153 0.12314244 -0.015517
0.31648499 0.17927934 -0.29551096
0.303031 -0.24052757 -0.00893026
-0.12380015 0.22378864 -0.015517
0.26266787 0.10801701 -0.002064
0.22870618 -0.01322016 -0.001356
-0.34301063 -0.16608650 -0.002064
0.325454 0.16291440 -0.11950039
0.3029216 0.04241783 -0.31149101
0.21763146 -0.32535730 -0.32494399
0.09227927 0.20022974 -0.002064
-0.3254919 -0.32940991 -0.058119
-0.2207915 0.04747640 0.003658
0.18134552 0.20599832 0.00993383
-0.26682476 0.14450369 -0.304764
-0.03332201 -0.31775637 -0.32494399
-0.35618299 -0.29714986 -0.2309165
-0.35618299 0.21650271 -0.20297341
0.31648499 0.14056466 -0.21810056
-0.30533367 -0.19661407 -0.304764
-0.13159534 -0.11288214 -0.31149101
0.12676167 0.22151041 -0.002064
-0.30097695 0.22358709 -0.015517
0.15101534 -0.15986714 0.003659
0.31648499 -0.16235023 -0.23320848
0.18950692 -0.38520061 -0.32494399
-0.13434451 -0.17675685 -0.304764
-0.27175547 -0.09448987 0.003659
-0.09339719 -0.28297299 -0.15250914
-0.28848033 0.21545757 -0.015517
0.12611986 -0.03720649 0.003659
-0.1067233 -0.28872414 -0.32494399
-0.31191941 0.21928599 -0.25143369
0.15315922 0.04339892 -0.001356
0.303031 -0.00809848 -0.00984765
-0.01084532 0.17998534 -0.002064
-0.0619093 -0.28297299 -0.02184135
0.0382923 0.13418384 0.01130289
-0.16332228 0.23273900 -0.31619074
-0.17108259 -0.06338672 -0.31149101
0.15903473 0.08689577 -0.31149101
-0.09290082 0.16761782 -0.001356
0.23965086 -0.33767914 -0.058119
0.02772246 0.11292440 -0.002064
-0.34844138 -0.09683610 -0.002064
-0.16548597 -0.34451838 -0.32494399
0.31648499 -0.27689102 -0.298394
0.03815278 0.11150079 -0.002064
0.06605812 0.21886391 -0.002064
0.07052045 0.03506702 0.003659
0.01689245 0.18055497 -0.32494399
0.325454 -0.17177904 -0.03822726
-0.365152 0.17099409 -0.25288222
-0.35618299 0.07911734 -0.07152515
0.04407178 0.02266916 -0.31149101
-0.15509967 0.22476889 0.006377
-0.17792202 0.08898151 0.00762777
0.00111439 -0.19854816 -0.002064
0.02849063 0.09464184 -0.002064
0.07207052 0.21419682 -0.002064
-0.365152 -0.23299456 -0.18958438
-0.35618299 0.15108660 -0.25427696
0.11890874 0.11614300 -0.00275513
-0.29492971 -0.14583697 0.003659
0.14775589 -0.12891698 -0.001356
-0.365152 -0.03232035 -0.25770839
-0.1727628 -0.28297299 -0.08854853
0.0732897 -0.03974156 -0.304764
-0.34069102 -0.06260344 0.00803089
-0.27875454 -0.28297299 -0.01894522
0.31648499 -0.10631664 -0.10705965
-0.13858643 0.11614300 -0.01046399
-0.0808234 -0.28297299 -0.22583942
0.27200998 0.11375202 -0.002064
0.31648499 0.03671230 -0.27395568
0.325454 -0.17731188 -0.19832256
0.0665819 -0.18340709 -0.31149101
-0.26667325 -0.29008020 -0.015517
0.25998606 0.22937500 0.00138466
0.31648499 -0.02169725 -0.06906511
0.31648499 0.17876314 -0.31696766
0.01533459 0.09058762 -0.304764
-0.13637185 0.18762675 -0.001356
-0.365152 -0.22690446 -0.13709758
0.25569083 0.21436998 -0.002064
0.02940098 0.01751606 -0.31149101
-0.1463907 0.21400737 -0.015517
0.24701684 0.18903753 -0.304764
0.09471125 0.00617893 0.003659
-0.00686224 -0.27716372 -0.002064
-0.35618299 0.08715631 -0.2237322
-0.05300072 -0.07959779 -0.304764
0.0411429 0.15309874 -0.31149101
-0.01173143 0.10605300 0.00355537
0.325454 -0.14899395 -0.31895354
-0.2315456 0.11129267 -0.002064
0.05378694 -0.28297299 -0.22780912
0.07109978 -0.17204446 -0.304764
-0.365152 -0.21902329 -0.19944947
0.31648499 -0.15860910 -0.31307014
0.080501 0.18421418 -0.001356
0.07182279 0.22534573 -0.015517
-0.28943891 -0.07446287 -0.304764
-0.23874707 0.17759571 -0.001356
0.00765227 -0.07256849 -0.002064
0.32138602 0.19378429 -0.002064
-0.36430192 0.01290335 -0.32494399
-0.27782474 0.03569354 -0.304764
0.12087866 -0.28297299 -0.10226592
0.325454 -0.01019117 -0.14179573
0.17602159 0.07349505 -0.002064
-0.365152 -0.23399262 -0.2441234
0.18559092 0.16129542 -0.001356
0.30034368 0.21031700 -0.06442544
-0.19041954 -0.28297299 -0.28922034
0.01592008 0.17386003 -0.001356
0.31093518 0.17967925 -0.304764
0.06257433 -0.17558480 -0.304764
0.31648499 -0.09704944 -0.12363844
-0.33194154 -0.12773795 -0.002064
0.32533526 0.22100723 -0.0020614
-0.35618299 0.11187533 -0.02108687
-0.10266943 -0.34018559 -0.058119
0.22476486 -0.22464554 -0.304764
0.24681699 0.01586728 -0.001356
-0.29133441 -0.34945125 -0.32494399
-0.365152 -0.19490110 -0.12728586
0.14410653 -0.28952930 -0.32494399
-0.35549281 0.21928599 -0.21765546
0.08608 0.20995532 -0.304764
0.12519309 -0.30177172 -0.002064
-0.32968735 -0.31975114 -0.058119
0.14050065 0.07923459 0.02901147
-0.08898385 -0.30060851 -0.002064
-0.02723659 -0.20121054 0.00732041
0.007057 0.02303788 -0.01333413
-0.17400784 -0.08767727 0.003659
-0.21478959 0.22359702 -0.002064
-0.01198596 -0.28297299 -0.21691669
-0.05006048 0.03107821 -0.304764
-0.35618299 0.08491302 -0.12081446
-0.365152 -0.10064194 -0.03937164
-0.35165871 0.14234651 -0.015517
0.18939029 -0.28297299 -0.04723208
-0.15500008 -0.24108330 -0.304764
-0.30661615 -0.21757596 -0.001356
0.325454 0.11175286 -0.10072138
0.29975041 -0.19163628 -0.002064
-0.07710614 -0.29216297 -0.058119
0.12736407 0.17628505 -0.001356
0.31648499 0.02211826 -0.25028477
0.30445214 -0.00430073 -0.015517
0.07372893 0.00253190 0.003659
-0.31954729 0.21882286 -0.32494399
-0.16925267 0.22769443 -0.015517
0.28804181 0.21031700 -0.24045052
-0.34452072 -0.24299285 -0.31149101
-0.35618299 0.15825821 -0.12287046
-0.365152 -0.13067528 -0.10869031
-0.11394847 0.09337484 -0.304764
-0.12824589 -0.28297299 -0.11716526
-0.2940463 -0.04435582 -0.304764
-0.365152 -0.28287964 -0.2169288
-0.35618299 -0.14222251 -0.13612622
-0.365152 -0.06110417 -0.21040478
0.26057234 -0.06392278 0.003659
-0.00576304 -0.13422066 -0.002064
0.09354871 -0.20437994 0.003659
0.06772567 -0.07405994 -0.001356
0.11857714 0.02114120 -0.001356
-0.17627338 -0.13748615 -0.001356
0.31648499 0.07036848 -0.21810528
-0.05919764 -0.28297299 -0.03994553
-0.21310567 0.02241324 -0.31149101
-0.10499068 -0.28297299 -0.06313106
0.31648499 0.14190228 -0.15664647
0.04036759 -0.22229073 -0.31149101
0.31648499 -0.09030592 -0.0501711
0.325454 -0.05708920 -0.27669186
-0.11370329 0.23143418 -0.015517
-0.24024371 -0.29796734 -0.002064
-0.08020154 -0.34561451 -0.058119
-0.12284477 0.01198822 -0.001356
-0.15272901 0.10064038 -0.31149101
-0.365152 -0.27777443 -0.27593137
-0.00279467 -0.30174783 -0.00159017
-0.00606279 -0.30380358 -0.015517
0.21773443 0.16452339 -0.304764
-0.35618299 -0.22871463 -0.09707702
0.31648499 -0.28241956 -0.14265056
0.325454 0.13527974 -0.03666239
0.04749002 -0.30203199 0.00448877
0.32282536 0.23273900 -0.20490152
0.14462126 -0.12817788 -0.31149101
0.02728575 -0.03710286 -0.001356
-0.35618299 0.06672326 -0.13672467
0.06496816 -0.07273224 -0.31149101
0.19833776 -0.25581980 -0.001356
0.31648499 0.09922877 -0.16787511
-0.35618299 -0.20878284 -0.31488406
0.31648499 -0.16867672 -0.16821497
-0.00987982 -0.22465983 0.00762969
-0.2349862 -0.21354857 -0.304764
0.07785374 -0.11327977 -0.304764
-0.35618299 0.12910886 -0.02280667
-0.16731602 -0.25387299 -0.31149101
-0.35618299 0.03283337 -0.32281212
-0.10407206 0.19604292 -0.304764
-0.03176571 0.17029897 -0.001356
-0.3672777 -0.06631109 -0.002064
-0.14912265 -0.27848899 -0.01058641
-0.365152 0.07814328 -0.12507426
0.2874552 -0.12887444 -0.002064
-0.32191133 -0.28680898 -0.002064
0.23414341 0.13703557 0.003658
-0.11816387 -0.28297299 -0.1877454
0.325454 -0.38021531 -0.16748543
-0.365152 0.04801933 -0.04697279
-0.35618299 -0.10688980 -0.20320031
0.18349936 -0.06200303 0.003659
0.07034656 0.13269808 -0.304764
0.27873877 0.19820912 0.003658
-0.36471437 0.20517019 -0.015517
0.15153938 -0.28297299 -0.19845452
-0.04600199 -0.28135103 0.00762247
-0.08018436 0.05353822 -0.001356
-0.365152 -0.30664844 -0.31672872
0.2182007 -0.22001256 -0.31149101
-0.35618299 -0.11036576 -0.13460047
-0.17823076 0.09082404 -0.002064
0.0173734 0.17495520 -0.304764
0.30293686 0.22937500 0.00552091
-0.29850695 0.15472471 -0.304764
-0.16640386 0.17658779 -0.001356
0.03648776 -0.35524382 -0.32494399
-0.21173242 0.00166936 0.003659
-0.35475349 0.21928599 -0.02935741
0.14272598 -0.36101518 -0.058119
-0.08694975 -0.15883429 -0.31149101
-0.2932011 -0.37578143 -0.32494399
-0.14249043 0.17885867 -0.31149101
-0.10624527 -0.28297299 -0.24081007
-0.29614398 -0.32125060 -0.32494399
-0.35618299 0.04414112 -0.09341106
0.01446488 0.01450356 0.0091652
-0.33007397 -0.29993973 0.008048
-0.25047962 0.05672941 0.003658
0.23128874 0.05630977 0.003658
-0.35618299 0.05855713 -0.07195085
-0.35618299 -0.11571352 -0.03976242
-0.35618299 0.19254888 -0.23107544
0.325454 -0.14167559 -0.32339017
-0.35749351 -0.01927716 -0.32494399
0.10385979 -0.17892158 -0.304764
0.2303611 0.16729605 -0.31149101
0.325454 0.06937286 -0.06968892
0.30880465 -0.08916979 -0.002064
-0.21481237 -0.28297299 -0.05585826
0.325454 -0.32276810 -0.13277823
0.26382326 -0.17733925 -0.001356
-0.01119687 0.13614063 -0.304764
0.31648499 -0.07198613 -0.2654952
-0.33364912 -0.27450856 -0.304764
0.09920774 -0.31374059 -0.058119
-0.365152 0.18109489 -0.04740942
-0.24169025 0.04668891 -0.304764
0.28637656 0.02676825 -0.001356
0.31667475 -0.29809613 -0.002064
0.325454 -0.32981546 -0.11259942
-0.22762443 0.16525499 -0.001356
0.28424359 -0.06757022 0.003658
-0.28691096 -0.06256273 -0.304764
-0.03594337 0.04978740 -0.002064
-0.08701893 -0.21288502 -0.31149101
-0.22511707 -0.01406140 -0.31149101
0.06842734 -0.31553989 -0.32494399
0.325454 -0.21888960 -0.10074353
0.29337891 -0.18506345 -0.002064
-0.33776957 0.00292314 0.00855642
-0.18164457 -0.02616058 -0.304764
-0.11086099 -0.02492810 -0.001356
-0.14084887 0.10247692 -0.31149101
0.18274024 -0.10638464 0.003659
0.325454 -0.14745742 -0.14303866
-0.01964831 -0.23376483 -0.31149101
0.25096416 0.10406654 -0.304764
-0.29582882 0.20391427 0.01072204
-0.00461979 -0.23653755 -0.31149101
0.29588208 0.11614300 -0.01048815
-0.16270535 -0.01012912 0.003659
-0.0303003 0.19538825 -0.015517
0.25424968 -0.04149343 -0.31149101
-0.35618299 0.03727919 -0.18491354
-0.23938191 0.10444872 -0.31149101
0.11311398 0.04345770 0.003658
-0.35618299 -0.19686977 -0.2141778
0.23207434 -0.27848899 -0.00570713
-0.13666989 0.13116198 0.01058229
-0.365152 0.16583142 -0.10569211
0.10436542 -0.21523648 -0.304764
0.27392063 -0.25302445 0.003658
0.31648499 0.16118715 -0.03846187
0.2630081 -0.10794939 -0.304764
-0.34458464 -0.04883449 0.00762991
-0.34607302 -0.28297299 -0.03825211
-0.01288156 -0.19066299 0.00782619
0.30146404 -0.28297299 -0.04997211
0.0900654 0.11321207 -0.002064
-0.34616096 0.06105595 -0.015517
0.07254143 0.08680971 0.03012301
-0.27511776 0.03648928 -0.001356
-0.18894866 0.14958555 -0.001356
0.09253691 -0.28297299 -0.1283111
0.182848 -0.28453176 -0.31149101
-0.365152 -0.29671886 -0.31704138
-0.23887946 -0.01188776 0.003659
0.24991633 -0.36399811 -0.058119
-0.35618299 0.11713443 -0.21734624
-0.06900375 0.08008854 0.02550512
-0.00134145 -0.07155435 -0.304764
0.29469407 0.01521271 -0.31149101
0.20678845 -0.13267205 -0.001356
0.20122077 -0.02986726 0.003659
-0.365152 0.08833674 -0.30099428
0.325454 -0.22988025 -0.20506357
0.31648499 0.14753769 -0.19293285
0.325454 0.12223921 -0.13764574
-0.2699818 0.04023301 -0.31149101
0.27047553 -0.05350919 -0.304764
0.23855225 -0.36063101 -0.058119
-0.17947371 -0.28297299 -0.20608204
-0.08543929 -0.27848899 -0.00510002
-0.05435705 0.05577134 0.00921617
-0.365152 0.00360268 -0.21422431
0.19960003 0.22530838 -0.002064
0.29127384 0.11666224 0.00762337
-0.09297876 -0.28073099 -0.31419821
-0.35606765 0.21031700 -0.22521235
-0.35618299 -0.20069329 -0.08468968
-0.365152 0.03986006 -0.11026411
-0.08593281 -0.11975898 -0.31149101
-0.22185082 0.23273900 -0.00847931
0.11158204 0.06147213 -0.31149101
-0.35618299 -0.14401250 -0.25370981
-0.10237878 -0.27443567 -0.31149101
-0.11573953 -0.08066561 0.003659
-0.16494905 -0.35485980 -0.32494399
0.325454 -0.12087024 -0.12058283
0.28075889 -0.26780573 -0.002064
0.16682427 -0.00842117 -0.304764
-0.20469843 -0.28297299 -0.18137451
-0.12675374 0.16494943 -0.001356
0.1766719 -0.35470841 -0.32494399
0.3140338 0.05955173 -0.31149101
0.03049716 0.18160919 -0.31149101
0.05537295 -0.20494937 -0.304764
0.325454 -0.22014846 -0.24819775
-0.35618299 0.21607768 -0.01870867
-0.08522021 -0.11390028 -0.001356
-0.24739016 0.04112486 -0.001356
0.00421572 0.12786843 -0.002064
0.31648499 0.17261647 -0.2233617
-0.2280116 0.01703038 0.003659
-0.33427249 -0.01248730 0.0094714
0.29923422 -0.28297299 -0.25688123
0.1816508 -0.28297299 -0.09866518
-0.03021377 -0.29290716 -0.015517
-0.20811682 -0.28297299 -0.20541715
-0.05452118 -0.14576187 -0.304764
0.32647125 -0.21405724 -0.00127808
-0.08004232 -0.12314673 0.003658
-0.18026632 -0.28166260 -0.002064
0.24166177 -0.28935680 -0.015517
-0.2026692 -0.28297299 -0.19591741
-0.04819172 -0.10497672 -0.304764
0.325454 -0.31554630 -0.27633237
0.20208751 0.08217054 0.00762428
-0.36548525 0.19734140 -0.015517
-0.21360394 -0.25165898 -0.31149101
0.08670411 -0.28297299 -0.16746534
0.09713225 0.17892499 -0.31326997
0.00305567 0.16414338 -0.002064
-0.32608964 0.21928599 -0.21107806
-0.13989716 -0.31974808 -0.32494399
0.31648499 -0.13163165 -0.28916077
0.31446196 -0.20722860 -0.015517
0.00540537 -0.03227589 -0.002064
0.21039155 -0.10847904 -0.304764
0.23376937 0.16701594 0.003659
0.23745411 -0.16847232 0.003659
-0.34278196 -0.28297299 -0.12790292
0.31648499 -0.10821976 -0.1709843
-0.35618299 0.00153056 -0.1058871
-0.365152 -0.12879810 -0.0946799
0.19537646 -0.37295458 -0.32494399
-0.35618299 0.06218133 -0.10970806
-0.24464047 -0.01850277 -0.31149101
0.325454 -0.17497436 -0.10977395
-0.365152 -0.20821998 -0.18118879
-0.35108666 -0.25271669 -0.002064
0.31648499 0.09739955 -0.31659347
-0.02372373 -0.24044946 -0.304764
0.27605676 -0.15146035 -0.31149101
-0.16030539 0.07258340 0.00820112
0.0825092 -0.28960885 -0.31149101
-0.30457224 -0.24670680 -0.304764
0.31648499 -0.29895520 -0.2240459
0.2660082 0.03299765 -0.304764
0.08610403 -0.10356450 -0.31149101
-0.12614816 -0.23052664 0.003659
0.325454 -0.21502366 -0.12009079
-0.28808431 0.21314157 -0.002064
0.27324137 0.00214932 0.003658
-0.03362614 -0.07333845 -0.002064
-0.33292266 -0.20431111 -0.31149101
0.04421978 -0.19956221 0.003659
-0.36165156 0.18191462 -0.002064
-0.11151508 0.15727889 -0.001356
0.23874997 -0.26657920 -0.002064
-0.35618299 -0.01473658 -0.02103253
-0.06623381 0.02557441 -0.31149101
0.24178168 -0.28297299 -0.05232131
0.31648499 -0.12828598 -0.19877148
-0.08905399 -0.28297299 -0.26918056
-0.35618299 0.05550617 -0.29419244
-0.3194353 -0.10161027 -0.31149101
-0.35618299 0.11419551 -0.03878095
0.06621662 0.16305426 -0.001356
0.06897266 0.07947692 0.02630183
0.31648499 0.21640496 -0.23086645
0.325454 -0.12350083 -0.31609757
-0.35259088 -0.21374302 -0.015517
0.22544648 0.04861761 0.003658
0.02117055 0.10605300 0.00058372
0.00935325 0.20583200 -0.01331645
0.09643638 0.09225194 -0.002064
-0.16147919 -0.09772790 -0.001356
0.00248966 -0.28297299 -0.25622566
0.13170804 0.06311655 -0.304764
0.18580847 0.13634563 -0.001356
-0.03117232 -0.17944016 -0.002064
-0.32739357 -0.08169965 -0.31149101
0.03215567 0.13884000 -0.001356
0.17512765 -0.11682102 0.003659
0.32133409 -0.28933330 -0.002064
0.31648499 -0.26134878 -0.03417722
0.29632765 0.10605300 0.0023053
-0.17454425 0.10609929 -0.304764
0.25911304 0.17288533 0.003659
-0.08674025 0.09909891 -0.00152257
-0.02285271 -0.28297299 -0.08220605
-0.365152 0.20810726 -0.18725186
0.03027414 0.08371863 0.03214026
0.20274688 0.20638224 -0.002064
-0.08747412 -0.37736292 -0.058119
-0.03943311 0.13070119 0.01039974
0.18681173 -0.13894393 -0.31149101
0.31648499 0.08605699 -0.08792813
0.31648499 -0.27645732 -0.17953342
0.21715474 -0.06173836 -0.31149101
0.325454 -0.05232212 -0.25861941
-0.1535328 -0.10901653 -0.304764
0.27484082 -0.30076144 -0.058119
0.17536664 -0.02948732 0.003659
0.29887804 -0.16094787 0.00839361
0.20213322 0.16275293 -0.001356
0.30927352 0.19841463 -0.015517
0.06139585 0.23273900 -0.01549902
-0.10997188 -0.10747086 0.003659
0.07766979 0.00914651 -0.304764
-0.23845741 0.13978356 -0.001356
0.28252931 -0.08969190 0.003658
0.25238861 0.20329487 -0.32494399
0.11857724 -0.20455577 -0.304764
-0.19297966 0.21144446 -0.002064
0.27729249 -0.20946259 -0.001356
0.2362986 -0.12944467 -0.31149101
0.09181919 0.02917845 -0.31149101
-0.365152 0.04194557 -0.29543615
-0.34272999 0.16171931 -0.01123308
-0.36212379 0.09482364 0.00684152
0.31648499 0.15966319 -0.23988911
-0.365152 -0.04025510 -0.18669124
0.28686712 0.19012248 0.003658
0.21734871 0.08410310 0.00762527
-0.14067928 0.14589595 -0.31149101
-0.30215616 0.05922144 0.00899825
0.12280943 -0.32384624 -0.32494399
0.15538192 0.18405685 -0.001356
0.12985741 0.10627796 -0.015517
-0.35240679 0.21031700 -0.30664179
0.09671009 0.16455969 -0.304764
-0.27574219 -0.04310331 -0.31149101
0.325454 -0.14085374 -0.28141732
0.08941756 -0.12440035 -0.304764
-0.35618299 -0.08378762 -0.15825482
-0.0054588 -0.21858527 -0.304764
0.29358164 0.15421917 -0.001356
0.325454 -0.10939271 -0.11619984
-0.07066373 0.07155452 -0.304764
0.21104195 0.02182074 -0.31149101
-0.15475823 -0.28297299 -0.23915752
-0.00422551 0.03516579 -0.015517
-0.13345708 0.04372652 -0.31149101
-0.36026692 -0.26350125 0.00762985
-0.33961587 0.17892499 -0.31467034
0.325454 -0.16981027 -0.12534711
-0.31744519 -0.28297299 -0.14139151
-0.18354974 0.06058668 -0.002064
-0.30237001 0.21035221 -0.16411432
0.07998514 0.22753253 -0.31149101
0.31648499 -0.29776977 -0.05854614
0.15781846 0.02769692 -0.001356
-0.35618299 -0.02241055 -0.05529496
-0.04479249 -0.36832527 -0.32494399
0.02754035 -0.28297299 -0.04774998
0.31282048 0.09775181 -0.002064
0.13657981 -0.36528496 -0.058119
0.15409071 -0.25835819 -0.001356
-0.30385671 -0.28297299 -0.2140283
0.0494904 0.08572578 -0.002064
0.325454 0.07701118 -0.06475367
0.26227788 -0.14743614 0.003659
-0.30128792 0.04875974 -0.304764
0.27812777 -0.33050143 -0.32494399
-0.12172768 -0.27428557 -0.304764
-0.34712721 0.21928599 -0.16745218
0.26182557 0.07137561 -0.31149101
-0.27716683 -0.15632934 -0.304764
-0.08698065 -0.25607679 -0.31149101
-0.05184297 -0.24642021 -0.31149101
0.01653508 -0.25174650 0.00980666
-0.14555564 0.19291347 -0.304764
-0.35618299 -0.17767738 -0.24357972
0.23795696 -0.31521854 -0.32494399
-0.16929609 -0.08014407 -0.31149101
0.23403176 0.06249341 -0.31149101
0.30139142 -0.25032521 -0.304764
0.29851431 -0.29972077 -0.32494399
-0.3290307 -0.05052432 -0.002064
0.23960565 0.11118361 0.006377
0.2231126 -0.06673825 -0.31149101
-0.06692413 -0.13212865 -0.001356
0.325454 -0.36504972 -0.13779096
-0.06667694 -0.08582782 -0.31149101
-0.22928195 -0.00411687 -0.31149101
-0.33754096 -0.02979695 -0.31149101
-0.09852169 -0.09752991 -0.31149101
-0.11021795 -0.28297299 -0.10218287
-0.365152 -0.32657364 -0.28693248
-0.27008208 -0.23535489 -0.001356
-0.2632849 -0.15375610 -0.001356
-0.29137555 -0.28297299 -0.08847605
0.31648499 -0.29320292 -0.09204223
0.1393516 0.21299361 -0.002064
-0.30642481 0.08173098 -0.304764
-0.365152 -0.16814688 -0.19329567
-0.31300293 -0.11069177 -0.304764
-0.35618299 0.12852426 -0.23713328
0.28291021 0.21031700 -0.13577405
-0.21341344 0.22653441 -0.002064
0.00234489 0.18805625 -0.32494399
-0.365152 -0.06903175 -0.32009102
0.325454 -0.18078226 -0.06383259
-0.25505933 -0.28372073 -0.015517
-0.36673982 -0.08997015 -0.015517
-0.31700435 -0.28141900 -0.32494399
0.31648499 -0.29302875 -0.14455062
0.27243529 0.20583200 -0.00654291
-0.2359917 -0.28807596 -0.002064
0.27234793 0.21266363 -0.002064
0.325454 -0.25181971 -0.27927304
0.1012312 -0.09776982 0.003659
0.31648499 -0.03307385 -0.02866424
0.31648499 -0.06844163 -0.06914051
-0.365152 -0.18114631 -0.02446443
0.29766472 -0.31488919 -0.32494399
0.30177332 -0.28297299 -0.29784593
-0.23065832 -0.24058030 -0.304764
-0.03971879 -0.22051099 -0.31149101
-0.13973322 0.07352230 -0.304764
0.325454 -0.10490369 -0.22967871
0.26473232 0.20069114 -0.304764
0.31145905 0.21928599 -0.27200189
-0.21493979 0.21031700 -0.31146927
-0.35618299 0.05723581 -0.08230522
0.31648499 -0.17647387 -0.31609005
-0.365152 -0.03834410 -0.32186754
-0.04133986 -0.29776962 0.006377
-0.10167151 -0.36406276 -0.32494399
-0.35618299 -0.22014554 -0.03827596
-0.34836842 -0.03494869 -0.31149101
-0.18166094 -0.15254855 -0.304764
-0.22928617 -0.19623044 -0.31149101
-0.35845752 -0.16621575 -0.002064
-0.16982379 -0.29637893 -0.32494399
0.20767309 0.06591812 -0.304764
-0.29706124 -0.13201650 0.003659
0.29251838 0.18531449 0.003658
-0.2464472 -0.26983398 -0.304764
-0.35618299 -0.08161059 -0.18936784
-0.13492124 0.09073382 0.00762867
-0.20302851 0.11519633 -0.002064
-0.17262727 -0.31868321 -0.32494399
0.325454 -0.04784259 -0.27666955
-0.27721841 -0.17356756 0.003659
-0.0886007 -0.28297299 -0.19464938
-0.21668163 -0.28297299 -0.2016127
-0.30320276 0.21031700 -0.27947689
-0.12827963 0.22486691 -0.002064
-0.02211572 0.20999348 -0.002064
-0.10190109 -0.29988201 -0.058119
-0.365152 0.07698487 -0.04623154
0.28414079 0.03004863 -0.304764
-0.13822567 0.17969642 -0.001356
0.325454 -0.13409770 -0.16339472
0.13717168 -0.05802539 -0.31149101
0.325454 0.04963519 -0.27628153
-0.12510315 -0.29288999 -0.32494399
-0.36963701 -0.05858117 -0.00357975
0.12987667 -0.10868771 -0.001356
0.12699442 -0.10892788 0.003659
-0.32615 -0.14825117 0.00630663
-0.08333511 -0.30203199 0.00085451
-0.31921064 0.21031700 -0.12301477
0.31648499 0.17415459 -0.09436057
0.01569841 -0.30418049 -0.015517
0.01235525 -0.01963995 -0.31149101
-0.19706334 -0.28297299 -0.02291434
-0.24122316 -0.05471064 -0.001356
-0.35618299 0.15508426 -0.24524656
-0.2259691 0.22299534 -0.002064
0.31648499 0.10067436 -0.15768783
-0.34502636 0.00823693 0.00762218
-0.365152 -0.27766960 -0.18672019
-0.25872744 -0.07835708 -0.304764
0.325454 -0.32881484 -0.1360221
0.16158666 0.20023201 -0.31149101
-0.35618299 -0.01526299 -0.05159829
0.25198324 0.03013697 -0.304764
-0.14668297 0.22132640 -0.015517
0.10352592 -0.36132843 -0.058119
0.14524008 -0.08381578 -0.001356
0.20241797 0.05615762 0.003658
0.25003679 0.09885068 -0.304764
0.31648499 0.11245678 -0.15276934
0.00311228 -0.28297299 -0.07181937
0.2126333 -0.17391375 -0.304764
0.22964244 -0.28297299 -0.21587805
0.10161458 0.08923600 -0.00950801
0.31950208 -0.30539501 -0.02404957
0.22120465 0.08454972 0.0076255
0.325454 -0.05351278 -0.15361108
-0.16303683 0.01912626 -0.31149101
-0.12817346 -0.04589355 0.003659
0.21543469 0.04301656 -0.304764
-0.05124552 -0.15102093 -0.002064
0.21248705 0.15748537 -0.31149101
-0.27987805 0.22882536 -0.32494399
-0.26806967 0.00843891 0.003659
-0.365152 -0.08974274 -0.13796129
-0.08787846 -0.31740977 -0.058119
0.25743131 -0.07120156 0.003659
-0.05847125 -0.23613567 0.01062955
0.325454 0.15462332 -0.15320682
-0.365152 -0.27794627 -0.08122406
0.03102874 -0.28297299 -0.16888524
0.31229774 0.06162262 -0.002064
0.16863299 -0.30342929 -0.32494399
0.31648499 -0.20545996 -0.24225437
0.09962571 0.09424279 -0.31149101
0.325454 -0.14425769 -0.05463858
-0.365152 0.09878551 -0.19187879
0.25814136 0.05822054 -0.31149101
-0.11264188 -0.16327816 -0.31149101
0.18774459 0.00659815 -0.304764
0.31648499 -0.06000093 -0.27132433
0.10169734 -0.28477395 -0.015517
-0.08133317 0.17065634 -0.31149101
-0.35618299 0.02506523 -0.21969833
-0.365152 0.20419042 -0.23353891
0.08653374 0.20583200 -0.0122577
-0.07839808 -0.03639827 -0.001356
0.11777095 -0.18106701 -0.31149101
0.0607142 0.02736867 -0.001356
0.1212917 0.15278912 -0.31149101
0.325454 0.22453090 -0.2113052
-0.27265509 -0.01875599 -0.304764
-0.365152 -0.30687804 -0.21782304
-0.00013398 0.04900690 -0.015517
-0.17143384 -0.22630569 0.003659
-0.27179552 -0.04303305 -0.001356
0.24609183 0.11589612 -0.304764
-0.25702197 -0.02500887 -0.31149101
0.13929778 0.23136745 -0.32494399
0.325454 -0.18036686 -0.12224167
-0.365152 -0.25320533 -0.2721207
0.30812264 -0.28297299 -0.28022546
0.24211573 0.20743075 0.0094631
-0.29630679 -0.28297299 -0.27526007
0.259929 -0.38284909 -0.058119
-0.365152 -0.38187902 -0.23067346
-0.00048873 0.15809505 -0.001356
0.30253248 -0.05730624 -0.002064
-0.11505618 -0.21765469 -0.31149101
0.12302412 0.02401089 -0.304764
-0.22335989 0.03828660 0.003659
-0.29576944 -0.27848899 -0.00376782
0.325454 0.07039703 -0.30412423
0.02139697 0.11707382 -0.304764
0.31648499 0.06438128 -0.26233428
0.18110295 -0.13107483 -0.304764
0.303031 -0.10399493 -0.00967043
-0.27363295 0.17521724 0.003659
-0.29074834 -0.17573676 0.003659
-0.09725637 0.04864603 0.003658
0.325454 -0.08547460 -0.1853194
0.31473679 0.21031700 -0.03665662
-0.34317398 0.21031700 -0.23798017
-0.00286732 -0.28297299 -0.16398514
0.10658217 -0.21934320 -0.304764
-0.365152 0.18279183 -0.18743137
0.31774889 0.00071682 -0.002064
-0.09453964 -0.28297299 -0.04009638
-0.22320164 0.17460753 0.003659
0.31854751 0.02638590 -0.015517
-0.01921842 0.17892499 -0.31736789
-0.35618299 0.02091169 -0.2398844
0.31122711 0.21928599 -0.28412047
0.325454 -0.20580845 -0.12060013
-0.23374087 -0.12220905 -0.001356
0.0167832 0.09387802 -0.304764
-0.365152 0.09692130 -0.18556146
0.19880323 -0.02873222 -0.31149101
-0.31315868 -0.27848899 -0.01182895
-0.06697163 -0.29580632 -0.002064
-0.13756912 -0.35690253 -0.32494399
0.19523269 0.00618308 -0.31149101
-0.08880044 -0.28297299 -0.16299736
-0.365152 -0.12297968 -0.25458411
0.0489376 -0.07231558 -0.001356
0.01734569 -0.27898067 0.00773948
-0.16850541 -0.29710141 0.006377
-0.30996165 0.08923600 -0.01302309
0.31648499 0.16315881 -0.07806362
0.31648499 0.07065220 -0.2517309
-0.365152 -0.26717710 -0.21500842
-0.06596823 0.10500353 -0.31149101
-0.03374557 -0.29756265 -0.002064
0.3150309 -0.23272141 0.00762716
-0.25442301 -0.28297299 -0.25012564
0.16246467 0.19243167 -0.32494399
0.24522162 -0.08874237 0.003659
-0.33229042 0.04132649 -0.31149101
-0.23287507 0.22263481 -0.31149101
0.02064803 -0.20800995 -0.002064
0.06416811 -0.34333675 -0.058119
0.19676285 0.10605300 0.00591849
-0.30475888 -0.33238721 -0.058119
-0.08195645 -0.28297299 -0.05883663
0.31321277 -0.23811657 -0.015517
0.0867879 0.17892499 -0.31760311
0.325454 0.23151095 -0.2157623
0.12797365 -0.17030054 -0.304764
0.19504677 -0.26332435 -0.31149101
-0.34463923 0.02244510 -0.31149101
0.32158455 0.09516900 0.00649823
-0.20437272 -0.10378097 -0.001356
-0.365152 -0.12624962 -0.23972975
0.325454 0.17731108 -0.11022579
0.01618773 0.00023779 0.00969247
-0.1443078 -0.09776191 -0.001356
0.31915436 0.12917905 -0.32494399
-0.35618299 0.09767719 -0.20090579
-0.35618299 0.04317629 -0.30875937
0.3245497 -0.20194211 -0.002064
0.10817079 -0.25965330 0.003658
-0.22825072 -0.15804380 -0.31149101
-0.24677016 0.02081469 -0.304764
-0.12449378 -0.24472230 -0.304764
-0.35618299 -0.09145566 -0.25238813
0.32993799 -0.08713942 -0.01131529
-0.04334533 0.16561487 -0.304764
0.13599154 -0.26009546 -0.31149101
0.04791185 -0.28297299 -0.23544707
0.06831955 -0.06166666 -0.31149101
0.07390412 0.07486170 0.00787415
-0.34948612 0.01298008 -0.304764
-0.35618299 -0.06458962 -0.15342863
0.325454 -0.37507840 -0.26770726
-0.22878972 -0.09982465 0.003659
-0.11467877 -0.04831494 0.003659
-0.24164462 -0.28297299 -0.05864193
0.325454 0.12035657 -0.1559592
-0.2286218 -0.19075733 -0.304764
0.325454 -0.03816205 -0.30226829
-0.1177088 -0.28297299 -0.07426183
-0.22631514 0.21404885 -0.015517
0.31648499 0.16625062 -0.08850662
-0.11630154 0.13483974 -0.304764
-0.18787154 0.11628454 0.00762391
0.04411193 -0.07473953 -0.31149101
0.22791316 -0.28505648 0.00762437
-0.31699373 0.17892499 -0.31632074
-0.24170876 -0.28297299 -0.28003877
0.15254548 -0.28626256 -0.304764
0.3138197 0.21031700 -0.01919814
0.24387722 -0.23144509 -0.304764
0.27156837 -0.28297299 -0.14384851
-0.22370265 -0.03396950 -0.31149101
-0.35618299 0.07677593 -0.14572044
-0.00245229 0.11573568 -0.015517
0.023637 0.01080831 0.00580465
-0.0313402 -0.15981035 0.00762891
-0.35618299 0.11379273 -0.29335471
0.31648499 -0.06446464 -0.17626755
0.06613821 0.08288102 0.0322098
-0.35618299 0.22078504 -0.19727599
0.325454 -0.02099977 -0.11648662
0.03657181 -0.38157452 -0.32494399
0.26121499 0.06859454 -0.304764
0.13621923 -0.37339164 -0.058119
-0.08128212 -0.28594983 -0.002064
-0.13072782 0.08040903 0.03103294
-0.13824144 -0.14181847 0.003659
-0.161969 -0.18007687 0.003659
-0.365152 -0.05857890 -0.24524626
-0.03654626 -0.22768514 -0.002064
-0.01829982 -0.22882545 -0.31149101
-0.365152 0.04383598 -0.16505299
0.05736249 -0.00715217 0.003659
-0.27637371 -0.35205095 -0.058119
-0.35618299 0.07029121 -0.09799398
-0.1971392 0.22522324 0.00682482
0.04830097 -0.10479694 -0.304764
-0.00082381 -0.28297299 -0.18711969
0.325454 0.03647527 -0.30870763
-0.365152 -0.34328111 -0.28011451
0.11213027 0.02632710 -0.001356
0.07098164 -0.29842934 -0.015517
-0.06325929 -0.06541695 0.00936242
0.04810262 0.09750133 -0.002064
0.325454 0.14156218 -0.21169772
-0.06438884 -0.24485055 0.003658
0.06095887 -0.17515976 0.003659
-0.35618299 0.02853518 -0.21787615
0.31648499 -0.08259546 -0.24945283
0.28167859 0.06876977 -0.002064
-0.35618299 -0.21315933 -0.2665965
-0.365152 0.06304501 -0.23026158
-0.14585335 -0.16271724 -0.001356
0.24470879 0.07596021 -0.31149101
-0.00745528 0.20253419 -0.32494399
-0.28081323 0.22859463 -0.015517
0.31648499 0.01422060 -0.13269511
