# .PCD v0.7 - Point Cloud Data file format
VERSION 0.7
FIELDS x y z
SIZE 4 4 4
TYPE F F F
COUNT 1 1 1
WIDTH 1402
HEIGHT 1
VIEWPOINT 0 1 0 0 0 0 0
POINTS 1402
DATA ascii
0.15657019 0.05376890 -0.25817908
-0.15858456 0.05194958 0.21532646
0.14109573 0.14615069 -0.03601553
-0.107076 -0.00454369 0.30135565
-0.143426 -0.01965618 -0.2551744
0.15648055 0.04732647 -0.15516897
-0.11907595 0.18910017 -0.27979128
0.05887385 0.20449989 -0.33898414
0.01303485 0.21984121 -0.09387043
-0.11065722 -0.02491309 -0.40530331
0.0806785 0.09990472 0.26442677
0.04228619 0.20534102 -0.07901757
-0.15188301 -0.02242792 0.2775837
0.15355791 0.07985369 0.28583293
-0.00629988 -0.01773267 -0.24845615
0.12186398 0.09281830 -0.4057735
-0.1300413 -0.01650208 0.20898844
0.09163274 0.02528955 0.16925681
-0.11925733 -0.03406243 -0.20199194
-0.01471785 -0.01809122 -0.22133574
-0.14998287 0.11041620 -0.16241629
-0.105475 -0.08362837 -0.26333048
-0.12116435 0.18463434 -0.25335635
-0.07522504 0.12315604 0.27933178
-0.15495683 0.09324803 -0.01762936
-0.03719246 0.00555099 -0.46349869
0.00914386 -0.01849700 -0.14048492
-0.1533337 0.12254568 0.07653707
-0.05373827 -0.01849700 0.08824067
-0.14606023 -0.04861724 -0.29146217
-0.03647613 0.09645828 -0.44382506
0.09069134 0.08954307 -0.23068343
0.01115325 0.22181502 -0.16204383
-0.1212545 -0.08079243 -0.28797226
0.04567365 0.09795600 -0.21837214
0.03242889 0.02816883 -0.3815863
0.11066591 0.10518987 -0.33492699
-0.11282837 -0.07003298 -0.29963167
-0.04717449 0.11484635 0.14680359
-0.10874435 -0.01788516 -0.19071937
-0.1547913 0.06659550 0.16299795
-0.01507959 0.20437020 -0.3204233
-0.143924 0.00427096 0.22513302
0.13577608 -0.06071704 0.30365936
0.11670194 0.20788633 -0.03304584
-0.13963408 -0.01444409 -0.2392125
-0.141773 -0.00612447 -0.22900505
-0.146182 -0.02517562 0.29011001
0.05879471 0.21830284 -0.08018011
0.16264496 -0.08067989 -0.25252322
0.14868159 0.00164710 0.2853099
-0.14208187 -0.01575076 -0.09819542
0.0550819 0.08458475 0.36073267
-0.1373208 0.00146533 -0.30213586
-0.11960908 -0.03175827 -0.3384655
-0.05790395 0.10471619 0.07964407
0.15829233 -0.02413496 -0.27443607
0.15249937 -0.00809108 -0.10092737
-0.12291522 -0.02374667 0.1747158
0.14859141 -0.01410229 -0.0435307
-0.1516475 -0.01848475 -0.27788672
-0.05894569 0.21956995 -0.29522816
-0.08449888 0.09176451 0.37083342
0.13569488 0.15118666 -0.3667712
-0.13107923 0.03946991 -0.21561374
-0.06595128 -0.01541252 0.28509392
-0.07550244 0.09795600 -0.15610777
0.13850609 0.04834955 0.23576339
0.11971522 0.03577406 0.36987202
0.07906012 -0.03031744 -0.43950789
0.09563498 0.04426039 -0.30792909
0.05385755 0.20473907 -0.27568364
0.14292499 0.03306589 0.20690135
-0.12294257 0.05920338 -0.25730787
-0.1302654 -0.01318790 0.27218109
-0.08423138 0.02613518 -0.42577381
-0.13883155 0.02977344 -0.37806973
0.067833 -0.01704522 -0.30045449
0.12691264 -0.08610160 0.24353667
0.08368745 0.09795600 -0.00793073
-0.1572826 -0.03624891 -0.29834731
-0.14985415 0.01558936 -0.32260207
0.05275604 0.01239082 0.39098851
-0.06606075 0.10976005 0.16918926
0.08814689 -0.01851264 0.0650777
-0.12850271 -0.05249053 0.20646672
0.15212864 -0.01910243 0.20938395
0.0965406 0.10814490 -0.37105071
-0.10775347 0.21129673 -0.02756426
0.03033446 0.18153739 -0.41157734
-0.14544918 0.01546345 0.34211936
0.15588324 0.08527237 -0.20122571
-0.14670804 0.03440876 0.1854647
-0.12628824 -0.04132706 -0.33528002
-0.086695 0.04236399 -0.2344944
0.14787299 0.12529425 0.04735431
0.13235224 0.03229500 0.36161988
0.04897814 0.05189015 -0.29024237
-0.14563134 -0.05883883 0.2435691
0.00020078 0.20548731 0.03361186
0.01294359 0.07372974 0.38328682
0.05511688 0.20538053 -0.09010309
-0.05728388 -0.01844177 -0.19482019
0.15510528 0.08839509 0.12769465
0.13127397 0.16489393 0.07468434
0.11883269 -0.07212547 -0.21979921
0.15375451 0.10324968 0.03089236
-0.11927462 0.09207976 -0.41217199
-0.00718961 0.10664671 -0.35273607
-0.1147788 0.07413779 -0.25888059
-0.09645655 0.02551700 -0.44416118
-0.02235612 0.22162013 -0.14893466
-0.10006622 -0.01656780 -0.38230071
0.08913722 0.05698535 0.37902971
-0.08340422 0.08172255 0.36211604
-0.02640969 0.09795600 -0.21006206
0.136023 0.00297998 0.26953685
0.13282567 0.16685580 -0.12743759
-0.14501733 0.03702977 0.34326892
0.11130391 -0.02564768 -0.20361522
0.02373953 -0.01275892 -0.4150042
0.15277776 0.09161630 -0.34977558
-0.10855452 -0.05034052 0.29204558
-0.08441586 0.11151328 -0.41222728
0.12758669 0.01761699 0.34587741
0.09451123 0.21705538 -0.06882918
0.11436396 0.20541293 -0.25251169
0.09739571 0.10708865 0.23533809
0.12608538 0.04584170 -0.23476116
0.06900883 -0.01714573 -0.29285228
0.01205332 0.17636991 -0.41553537
-0.09846961 0.17031683 -0.09546542
0.12172612 0.02685213 -0.31662641
-0.04854469 0.13568956 -0.23823273
0.13054021 0.05036585 -0.30660836
-0.11659417 -0.00785218 -0.33564937
0.12941077 0.15969741 -0.24309827
-0.03581465 0.20485105 -0.21624712
0.00876112 0.12076409 0.3123097
0.12616759 0.12681002 0.13583028
-0.14215802 -0.01969087 0.15352025
0.15583188 -0.01539601 0.28255087
0.15732823 0.00559338 -0.33079304
0.13716396 -0.08469217 0.23173123
-0.14163345 0.13589587 0.0083241
-0.02600365 0.08391926 0.29111214
0.14859404 0.12555545 -0.25254605
-0.00173854 0.07768778 -0.4448798
0.1385183 0.11026678 -0.39840034
-0.029578 0.23142099 -0.14220254
0.11415758 0.10608769 0.26629743
-0.06459266 0.21947446 -0.30446108
-0.1177221 0.19606404 -0.17527754
0.15463829 0.09647882 0.03727129
0.03881956 0.12356214 0.2848184
-0.086695 0.02901922 -0.28595439
0.08357642 -0.01768277 0.19182799
-0.14357001 0.05477780 -0.31218638
-0.15696239 0.03927318 0.20766851
0.10907489 0.21504728 -0.16712024
-0.15413312 0.04964660 0.11172539
-0.13419899 -0.03149691 -0.10976443
-0.11467703 0.11693495 0.18030348
-0.1420932 0.05417657 -0.40734092
-0.15079528 0.02342672 0.20291295
-0.09440625 0.15965596 -0.10035554
-0.14895917 0.00264222 0.1966051
0.07043754 -0.01552169 0.28060907
-0.03763615 0.07351261 0.37972144
-0.0640933 0.21980001 -0.2664572
-0.07687301 -0.01849700 0.06860105
-0.14620499 0.03323465 -0.27219825
0.03713153 0.11252217 0.14828655
0.09027853 0.17278696 -0.25492882
-0.04150301 0.22096197 -0.17716496
-0.1235883 -0.05796466 0.28358815
-0.0580417 0.08262494 0.3612537
-0.15599588 0.13343357 0.07562818
0.12998685 0.04783266 -0.28841735
-0.105475 0.05207111 -0.27451322
0.11741106 -0.03641066 -0.33902369
-0.14607908 0.11773274 0.16656247
-0.14955076 -0.07975958 0.27259274
-0.1378075 -0.04604007 0.17029838
0.00520968 0.20477752 -0.17854625
-0.12832728 0.09795600 0.07736072
-0.14033906 -0.06016681 0.26501376
-0.06554979 0.22033699 -0.2037701
-0.00327854 0.22019613 -0.09906601
-0.15370899 -0.01628149 -0.22020104
0.01467625 -0.01849700 0.05638923
-0.08201252 0.18160280 0.07696254
0.02395396 0.09795600 -0.15753499
0.14968006 0.00977580 -0.28650812
-0.03352085 0.09818832 -0.24933694
-0.146055 0.01081710 0.26934112
0.14105198 0.10986747 -0.37361073
0.13569104 0.09067985 -0.40298406
-0.15351929 -0.03837252 -0.272948
0.02764041 -0.02372019 0.36774713
-0.14698111 0.06851254 -0.33539895
0.16496019 0.06004635 -0.24437903
-0.00447307 0.09061531 0.36558175
0.15783501 0.01355179 -0.03351417
-0.15615795 0.01918392 0.14972234
0.15347721 0.10563056 -0.26541338
0.0551231 -0.01849700 -0.16834227
-0.11981708 0.00924448 -0.33165918
-0.14763975 0.10970355 -0.1693701
-0.15423388 0.04373165 -0.12005059
-0.11391105 -0.00056180 -0.19343851
0.12540749 -0.08159970 0.22750004
0.01645801 -0.01733669 -0.27840803
-0.11251738 0.12668109 0.14892515
-0.14655543 0.03216203 -0.31379873
0.09627259 0.04902275 -0.30049609
0.12236237 -0.00445191 0.30639948
-0.11828118 -0.00217129 -0.34562974
-0.12625228 0.09795600 -0.23765467
-0.03188057 -0.01849700 -0.17244999
0.15466381 -0.03758943 0.23627244
0.07559978 0.19395226 -0.39780111
-0.08666343 0.08678614 -0.44443268
0.04222262 0.09795600 0.00089395
0.1083412 -0.00537503 0.17916703
0.08061295 0.10835106 -0.443069
0.0171607 0.20494876 -0.1495083
0.10146204 0.06596702 0.36695634
0.06594109 -0.01838941 -0.19878068
0.14620349 -0.03321087 -0.32959676
0.13242036 0.02454559 -0.2308833
-0.11023625 0.12656598 0.20022218
-0.13551903 -0.00909106 0.34452659
-0.05480946 0.09855979 -0.44999648
-0.10158179 0.10954938 -0.38821964
-0.00086382 0.04166121 -0.44919159
-0.09496584 0.10641607 -0.34991668
-0.11248638 0.20033443 -0.07356289
-0.15724037 -0.03617293 0.19631336
-0.07334116 0.21636050 -0.03489936
-0.12335245 0.18645997 -0.02343137
0.135003 -0.02276540 0.02259672
-0.11607082 -0.01870258 -0.08776933
0.13350268 0.01608694 0.29968166
0.14579595 0.13202878 0.02132935
-0.11864279 0.06005596 -0.39580627
0.08836838 0.23163984 -0.29945715
-0.10857578 -0.01493139 -0.36836245
-0.08649963 0.23000958 -0.12622959
0.02141501 0.03453905 -0.21112731
0.15936546 -0.03939700 -0.12285749
-0.02619571 0.02670931 -0.42032632
0.03353672 0.03805002 -0.31881168
0.15389335 -0.03880285 -0.31212385
-0.00893504 -0.01849700 -0.12519506
0.10748745 0.00053896 0.31482055
-0.05635392 0.12334809 0.28422941
0.13846727 0.00720027 0.29181995
0.1480144 -0.06037425 0.19546816
-0.11592888 -0.01619431 -0.35097813
-0.10431272 0.20233429 -0.38156626
-0.10572521 -0.03255936 -0.20390595
-0.12150912 0.05034221 0.23273693
0.1479046 0.01228994 0.22528692
-0.13665306 0.14823481 -0.18465474
0.0324647 0.20479866 -0.22047201
-0.14725511 0.10551665 0.05554967
-0.14973647 -0.06804610 -0.30340387
0.15601564 0.08720630 -0.08617909
-0.10143306 -0.01859415 -0.19064192
-0.07435727 0.16822207 -0.26751904
-0.12839529 0.06563936 0.35210923
-0.12479097 0.18363052 0.03837289
-0.12040863 0.17968562 -0.36973491
0.14556867 0.04716297 -0.31807751
-0.06687216 -0.01849700 0.12827706
0.03900695 0.20495792 -0.18539281
-0.15110398 0.10059160 -0.29761657
0.0466264 0.10678960 -0.35448291
0.14171139 -0.00686668 -0.23522182
-0.09106866 0.02902434 -0.37303938
-0.12247775 0.18536799 -0.13220325
-0.07363708 0.14590026 -0.24765337
-0.14713963 0.10515301 0.01650566
0.02696116 0.08567853 0.29234931
-0.11075901 -0.06879049 0.18526282
-0.12671334 -0.05062641 -0.26489673
0.13500991 -0.03180626 0.26763763
0.1488948 -0.04095974 -0.26215698
-0.11643123 0.04750560 -0.2484807
-0.10824698 -0.01865834 0.15744546
0.13042083 0.13804495 0.1208199
-0.03090072 0.21798776 -0.05866848
0.00795787 0.22088865 -0.11739648
-0.04598869 0.09795600 -0.0756316
0.11096327 0.04602972 -0.30880069
0.10953399 0.10853987 -0.37587899
-0.11695944 -0.05316676 0.29894391
0.09976704 0.10762985 -0.36475443
0.03657515 0.13791613 0.08983931
-0.09723433 0.10109009 0.07875094
-0.11950305 0.04863633 0.22028128
-0.13021066 0.04982933 -0.25835907
0.07572117 -0.01849700 -0.06481843
-0.07458377 0.02841674 -0.38540427
0.15147797 0.03452692 0.27863885
-0.09564833 -0.01858471 0.07068745
-0.159721 0.05214575 -0.27794776
-0.05327179 0.11361752 0.34074873
0.10890381 -0.04147025 0.3135557
-0.13261618 0.06237505 0.23388892
-0.105865 0.05707073 -0.27931096
0.109446 -0.05573688 -0.21236709
0.00911864 0.09795600 -0.06635926
-0.04393077 0.10483541 0.18082857
0.12847784 0.00555267 -0.30900634
-0.1400907 -0.01959214 -0.18723191
-0.107076 0.02280097 0.2901156
0.03065045 0.20519016 -0.10264605
-0.14640648 -0.03982023 -0.24621766
0.06589108 0.12417854 0.13952061
-0.1386228 0.09795600 -0.07530766
0.13347759 -0.05362165 0.21964808
-0.01212529 -0.01179470 -0.43262768
0.14195461 -0.07098453 0.21196615
-0.03609995 0.10163105 -0.29142246
-0.12938424 -0.02239992 -0.33974156
-0.14471894 0.06260510 0.24771785
0.12227172 -0.05159481 -0.32657492
-0.05576737 0.03423584 -0.22242655
0.089642 0.00699441 -0.21066643
-0.143924 -0.01364616 0.23811661
-0.14620499 0.01870508 -0.26594965
-0.06280928 -0.01606445 0.2583117
-0.13384963 0.15641924 -0.06150068
-0.07880365 0.09885362 0.26806903
-0.04908755 -0.01849700 -0.08705567
-0.080546 0.01117070 0.17567469
0.01022264 0.19224499 0.07544015
0.05100317 0.02803937 -0.39494811
-0.13526875 0.14574632 -0.05615946
0.0278506 0.09795600 -0.14318184
0.01782047 0.18485507 -0.40988603
0.07280807 -0.01720482 -0.28838247
0.11381884 0.02995498 -0.32019296
0.08368439 0.02353703 0.23238801
-0.1144317 -0.08413595 0.23965475
0.0035777 0.15065543 -0.25207515
0.08944803 -0.01852615 0.12646445
0.06362162 0.20502312 -0.06848696
-0.058694 0.06624866 0.38081905
-0.13309109 -0.00343155 0.30666634
-0.15671192 0.00422182 -0.25026324
0.04826422 0.04164753 -0.4467571
-0.11673017 0.05446240 0.2302647
0.15554426 0.08879101 0.04988396
-0.11683999 0.20244599 -0.03763898
0.06062762 0.09795600 -0.22364036
-0.1390734 -0.02809832 0.17235652
0.08501442 0.07335789 0.37111111
0.04398995 0.20445390 -0.337688
-0.1436436 0.12959612 -0.27443868
-0.10833489 0.17224345 0.08259911
-0.144581 -0.03066093 0.19550356
0.04671149 0.08288814 0.3352614
-0.14655933 0.04271701 0.24363891
0.16222092 0.02979671 -0.19610133
-0.14903148 -0.08809042 -0.2779742
0.11043376 -0.07237275 0.19668287
0.148699 -0.00800623 -0.26562565
0.05499661 0.12298341 -0.25967847
0.12162149 0.09294100 -0.40399089
0.11206172 -0.07927662 0.26158001
-0.12219666 0.08869454 -0.43123829
-0.14620499 -0.00064964 -0.21800013
-0.1087971 -0.01569490 -0.35729464
0.13992337 0.14678084 0.09093102
0.14400123 0.06389476 0.33616588
0.1453444 0.00956771 -0.31798049
-0.13901563 0.14272649 -0.15836517
-0.12629511 0.17363354 -0.24169424
0.08667501 0.12745950 0.15246273
0.14829824 0.10909081 -0.28513819
-0.08155649 0.11336111 0.15927624
0.15295227 0.06445180 -0.40277728
0.13621988 0.11496258 -0.43077602
-0.13592429 0.01105540 0.31707871
-0.146621 0.01443921 0.27296422
0.1226133 0.19363938 -0.09832095
-0.16087285 -0.00778546 0.20630585
0.03375982 0.11057236 0.35235678
0.12763378 0.02550811 -0.31991348
-0.12543374 0.00944631 0.31701112
0.1280423 0.08143041 -0.24625553
-0.02623872 0.10335587 -0.44806635
0.13094686 0.02265460 0.34806211
0.12295108 0.10578583 -0.34221234
-0.00295755 0.20444817 -0.27619438
0.14003149 -0.04040806 -0.27355567
-0.00771479 0.22030295 -0.32758625
-0.11717424 0.09795600 -0.14430594
0.0522058 0.10440020 -0.44827913
0.13777065 -0.02495747 -0.11087268
-0.11373368 0.19367410 -0.36726209
0.15642086 0.04671087 -0.29109046
0.10123765 0.10767126 -0.06177404
0.0824607 0.17450482 -0.26674354
-0.11147425 0.20549969 -0.25379759
-0.08660948 0.01535792 -0.20059886
-0.15440158 0.00948542 0.09497333
-0.14936946 0.04443634 -0.23577197
-0.11977974 0.04750274 0.23925716
0.12827196 0.02707764 0.19583466
0.04798294 0.09795600 -0.13099882
-0.13509128 -0.05000733 0.230386
0.0421198 -0.01849700 -0.09806786
-0.0822052 -0.01396026 -0.3917366
0.03377833 0.09795600 0.03152567
-0.144581 -0.00613821 0.19895775
-0.15049429 -0.00452576 -0.24320258
0.05791099 0.05005160 -0.29403756
0.0582769 0.13967060 0.14274523
0.10792387 0.10611518 0.33042419
-0.146621 0.02147437 0.26447264
0.102998 -0.05720730 0.29867824
-0.00307016 0.09795600 -0.12277349
0.10841917 0.20299996 -0.05467467
-0.05684609 0.15754585 -0.08472167
-0.12084223 0.11693956 0.19098176
-0.12566694 -0.07755863 -0.25069137
0.106563 0.21209643 -0.34985733
0.12694553 0.12211976 0.19911385
-0.10475676 0.13161940 -0.09429054
0.0484259 0.10939010 -0.25496061
-0.01213541 -0.01849700 -0.03630222
-0.05671773 -0.01690507 -0.31105538
-0.15489623 0.07154405 -0.03255664
0.13161191 0.11571243 -0.25676589
0.15017501 0.00310860 -0.24165111
-0.0237408 0.13024780 -0.09385151
-0.09615831 0.02847834 -0.38246453
0.14558087 0.03154926 0.25303134
0.13122472 0.17116221 -0.07937147
0.16041889 -0.03853622 -0.13367581
0.13734221 -0.04203012 0.19911489
0.03153585 0.09795600 0.02848662
-0.15728139 -0.07143733 0.19583785
0.12973233 0.04447298 -0.25971566
-0.02564543 0.08940299 -0.44699408
-0.02352469 -0.01704937 0.2178493
0.05513633 0.13783254 0.08780081
0.04948085 0.10547080 -0.33836126
0.04237593 0.20434407 -0.35844843
0.10164508 -0.01858125 -0.04732717
-0.07614053 0.05312382 0.38238912
0.11107473 0.04508504 0.21235172
0.08368486 -0.00294614 0.25197516
-0.05164638 0.01664824 0.3859033
-0.15270069 -0.08233879 -0.23533282
-0.13230353 -0.05456962 0.23902393
0.143849 -0.02686660 -0.21289348
-0.14875627 -0.05674670 0.26715558
0.14514617 0.07959624 -0.30568859
-0.08759266 0.05016464 -0.29366836
0.0324673 -0.01463125 -0.38078291
-0.12035685 -0.02357522 -0.19693965
-0.13074785 0.00805145 -0.327087
-0.14236971 0.04796526 -0.43273996
-0.06836909 -0.01849700 -0.03013631
0.14530809 0.03832541 -0.30372923
-0.15448396 0.02225332 0.03137916
0.11101607 -0.06493056 -0.31590718
-0.13489355 -0.02901430 0.13269414
0.13790082 0.07715038 0.34374511
0.01818641 0.01166858 0.39625345
0.11882567 -0.02698887 0.3123837
0.14274948 0.14207596 -0.03104905
-0.15423639 0.00885731 0.06672854
-0.080546 -0.00350744 0.19829562
-0.08561964 0.03657402 -0.32185848
0.09618377 0.21939718 -0.19888458
-0.13912658 0.00779700 -0.22202843
-0.14385052 0.06788935 -0.4209665
0.14021576 -0.03995787 0.18387899
0.01202854 0.04321403 0.39278738
0.17739674 0.12285387 0.08525612
-0.12162022 -0.01167402 -0.19940877
0.0579599 0.12946678 0.22906148
-0.07424249 -0.02371307 0.35015404
-0.14244317 -0.03384872 0.17569558
0.08330603 0.23156876 -0.21135641
0.10903333 0.05313675 0.35997819
-0.14462586 -0.03939800 0.1169986
0.14583473 -0.01549115 0.14440587
-0.0370098 0.20536663 -0.06741008
0.12636525 -0.01873947 -0.04810171
-0.09842343 0.04504606 -0.30816078
-0.11177559 -0.07250704 0.20706802
0.15559401 0.00081212 -0.22448907
0.135003 -0.03281951 0.103985
0.09945749 0.18361573 0.06940209
0.02352657 -0.01717938 -0.29030695
0.149591 0.01094073 -0.2212236
0.04069079 0.22083939 -0.20096763
0.148138 0.00048125 -0.39672492
0.07357645 -0.02325041 -0.44350414
0.12817279 0.17251865 -0.30501071
-0.15538843 -0.04896488 -0.23686766
-0.12078408 0.10353687 -0.39309733
0.15696174 -0.03224681 0.06325831
0.15189858 0.11687081 -0.05177104
0.14507138 -0.03885599 -0.22295308
-0.05529241 0.12294626 0.28789214
0.13996689 0.09232909 -0.2778697
-0.11667759 0.09708947 -0.0621399
-0.11587228 -0.04262080 0.29869336
0.02933315 -0.01838581 0.16294593
0.09399022 -0.02371128 0.3470767
-0.02208497 0.09795600 0.07143071
-0.15609338 -0.02306108 -0.19681874
-0.14064414 -0.08016948 0.20030827
0.14980593 0.10620884 -0.14488565
-0.14817914 0.04002044 0.2281557
0.15782417 0.01906835 0.13695493
0.02459728 0.09795600 -0.06087735
0.0862932 0.14872706 0.12276499
-0.12439863 0.04300957 -0.29555751
-0.1266197 -0.06540846 0.27658913
0.14129034 0.10007208 -0.27236484
-0.02536204 0.09795600 -0.18557518
0.10510249 0.14183206 -0.07567223
-0.12605411 0.13288019 0.12956383
-0.1427081 -0.07072221 0.28425882
-0.09117623 0.21236188 -0.00492361
0.14012299 0.02425680 0.26419507
0.09882942 0.12345769 0.0842602
-0.14528826 -0.04468526 0.2321094
-0.1380449 -0.01761111 0.1236405
-0.1436613 0.02971541 0.18753519
-0.10255937 0.19188400 -0.39452552
-0.13961964 -0.04326206 -0.32642347
-0.11062368 -0.06915179 -0.21518375
-0.05129408 -0.01849700 -0.05687371
-0.00443228 0.08906571 -0.44367428
-0.14154467 0.12070502 -0.39148786
0.03724735 0.22036728 -0.26469781
-0.00295097 0.15876799 0.12460158
0.145743 0.00958601 -0.21550097
-0.13140041 0.09855929 -0.25387192
0.08033158 0.22046081 -0.18308928
0.00573555 0.01512115 -0.46668942
0.00572223 -0.01784928 0.18498743
0.12759162 -0.00013881 -0.22816399
-0.09532717 0.09795600 0.00829568
0.12008038 -0.02371267 0.347067
-0.11755597 0.05827118 -0.2757898
-0.11334948 0.20446453 -0.15904036
-0.07183674 0.00637203 -0.46018693
0.148699 -0.02896265 -0.27582814
0.1163002 -0.04300042 0.18219965
0.154626 -0.00183693 0.23795685
0.07616115 -0.01849700 -0.14535045
-0.07565621 0.09795600 -0.07197102
0.155288 0.02709577 0.1935315
-0.15902906 0.02594643 -0.20431055
-0.05530605 0.19408839 -0.39989479
0.09927273 -0.01389249 0.15895283
0.08239988 0.09414551 0.30837761
0.16295724 -0.07128828 -0.29973591
-0.13972191 -0.05782809 -0.21504226
0.164216 -0.08081285 -0.27022865
-0.09624271 0.04874719 0.19559099
0.1318578 -0.07976884 -0.27539219
-0.11799714 0.05447480 -0.29155564
0.08363463 0.06242254 -0.26994779
-0.1430465 0.04690500 0.2946872
0.1410303 0.02918596 -0.22954714
-0.15956429 0.06968949 0.25643654
-0.1414402 -0.01604736 -0.0006782
0.1257097 0.08185022 -0.24248757
0.11068547 0.21456822 -0.17395955
0.06719365 0.03007597 -0.35118383
0.163692 -0.05501518 -0.2128943
0.15439769 0.10203916 -0.07632147
-0.15431551 -0.01505638 -0.19903141
-0.13134139 -0.02382616 0.29747108
-0.01125952 0.20536526 -0.02235286
0.12963333 -0.04128785 0.30173726
-0.12037831 0.19043573 -0.13884516
-0.144581 -0.06122672 0.21941524
0.12843368 0.07014779 -0.37448716
0.11657613 -0.07116975 -0.23513005
0.089642 0.03978169 -0.29928313
0.13212891 -0.03769921 -0.30541103
0.12921265 0.09795600 0.01834051
0.03550459 0.03153962 -0.29455461
-0.08203801 0.22598700 -0.26866618
-0.15553185 0.02180815 0.26826208
-0.12574971 -0.01976092 -0.3442747
-0.11168845 0.20774865 -0.2119778
-0.080546 0.03984470 0.26551617
0.148073 0.03200809 -0.27825101
-0.14956923 0.11061561 0.05989524
0.08352056 0.02184657 0.29387914
-0.15184787 0.09119139 0.16632964
-0.15797361 -0.04706463 -0.32203572
-0.06820608 0.20447361 -0.3092953
-0.14799697 0.02391869 -0.23645535
-0.04726551 -0.01224302 -0.4244338
0.12042285 0.04090903 0.21359636
0.13478632 0.14237251 -0.0655046
0.09291246 0.11314793 0.17636844
0.14216401 -0.04871621 0.27396164
0.00321522 0.03126767 -0.30937421
0.1618055 0.03407892 -0.21879242
-0.04477368 0.20422260 -0.34467717
-0.07046031 0.14927379 -0.25077063
0.14664466 0.01728142 -0.21141981
0.01740639 -0.01840284 -0.19776547
0.08371663 -0.00711891 0.2430331
-0.11112861 0.05518454 -0.24246353
0.11796309 -0.00771263 -0.33698281
0.15559401 -0.01590922 -0.23071742
-0.14900276 -0.03939800 0.13342721
0.06106258 0.11034202 -0.39790917
-0.09506632 0.11696788 0.29885978
-0.08425364 0.08147902 -0.44504106
-0.03464679 0.07516622 0.38185579
0.14251124 0.02911834 0.29869609
0.12382737 0.02367163 0.29380532
-0.14309179 0.06095329 0.3329058
0.15239655 -0.02136555 -0.3271906
-0.0020176 0.19501816 -0.40236844
0.12393604 -0.04171509 -0.3287544
-0.146621 -0.05602633 0.26177668
0.04438471 0.09005441 0.28501304
0.12138183 0.09795600 0.07721226
-0.14764824 0.07723309 -0.28611153
-0.04383491 0.03179056 -0.30949275
0.01227025 0.11467023 -0.42583402
0.10841611 0.20430626 -0.36742185
-0.0159418 -0.01289718 -0.41247715
0.15123656 -0.05925287 -0.22023383
-0.17798076 0.13272356 0.08328344
0.14952042 0.09407789 0.28126477
0.102618 0.04355736 0.25713412
0.13885122 0.00738461 -0.25119084
-0.14147295 -0.02000671 -0.20127982
0.14172401 -0.01623843 0.29667709
0.12531523 -0.08108808 -0.30275202
-0.11901616 -0.07005602 -0.30369076
-0.13952136 -0.07490641 -0.23158328
-0.12436655 -0.03556046 -0.32965524
0.12358413 -0.00854003 0.30762561
-0.10537678 -0.02556471 -0.34063124
0.14678388 0.05319331 -0.28068938
0.08864429 0.05505664 0.25307418
-0.09634433 0.09795600 0.01485513
-0.13091477 0.16663208 -0.00367629
0.09883175 0.09835891 0.30082978
-0.13520927 -0.02147088 -0.15555152
-0.13716838 -0.01802417 -0.10121639
-0.09997076 0.08513761 0.34268047
0.11595643 -0.01867778 0.08240861
-0.10833853 -0.02332322 -0.2000807
-0.07138318 0.11708436 -0.43092769
-0.151623 -0.02804764 -0.21386954
0.12045635 0.19562061 -0.2014571
0.09510478 0.03032164 -0.34569621
0.12978841 -0.05384676 -0.23654912
0.06707886 0.21414767 -0.37874291
0.16270297 0.00207347 -0.20528381
-0.080546 -0.01441246 0.24263629
-0.12194609 -0.06485906 -0.23383263
-0.11445809 0.00536201 -0.32964371
-0.13761249 -0.03490381 0.15663629
-0.139879 -0.02065500 -0.2284776
0.14838287 -0.01567112 0.20656002
0.13058419 -0.04746570 -0.26258688
-0.11865306 0.03924342 -0.30163972
0.09145192 0.10427520 -0.44209436
0.1021813 0.09795600 -0.15129242
0.03941663 0.21805782 -0.06347542
-0.03780105 0.12100439 0.14218968
0.00152216 0.09795600 0.02384651
-0.12156045 0.18858641 -0.05762657
0.109446 -0.05169334 -0.20948074
-0.06529913 -0.01849700 -0.01133447
0.15201264 0.11249773 0.09684632
-0.01419671 -0.01252438 0.37982902
-0.12665405 0.04481329 -0.23669409
0.00226042 -0.01724166 -0.2855963
0.08811028 0.23154705 -0.19149635
0.05952707 0.09795600 -0.14917691
-0.15336544 -0.07248419 -0.29506647
-0.09134479 0.13178879 -0.09434476
0.05609562 0.10606039 -0.25380496
0.155288 -0.03290783 0.18128213
0.07058282 0.22721700 -0.14249159
-0.06129059 0.14238064 0.13835094
-0.09677913 0.03140628 -0.43855896
-0.105475 -0.00292752 -0.33344806
0.14328076 0.03880432 -0.22914999
0.03677213 0.12168641 0.30198193
0.14589431 -0.03224857 -0.10006783
0.08492992 0.21587112 -0.06392805
0.14833726 0.10900769 -0.41192515
-0.08541069 0.13038510 0.16871862
0.16188295 -0.03279182 -0.15951627
0.02544262 0.22077485 -0.24586367
0.03057621 0.10318975 -0.31047669
-0.141895 0.02933903 -0.31594417
0.14987777 -0.04382702 0.18550288
-0.15974601 -0.00335500 0.17159806
0.15783501 0.01816111 0.00340882
0.05275594 -0.01825559 -0.20890343
-0.03368774 -0.01488083 0.30693672
-0.15042297 -0.03224628 0.12087937
-0.14325572 -0.01520751 -0.05858779
0.0263469 0.09795600 -0.15866807
-0.14410201 0.02672709 -0.23548567
0.14073201 -0.02794647 0.24133263
0.13360835 0.10753130 -0.42322825
0.06813994 0.02979959 -0.36128453
0.11226373 0.07265628 -0.25737019
-0.1320541 -0.03798674 0.13978742
-0.00094388 0.22037431 -0.33398966
-0.14706756 0.10683724 -0.21327343
-0.14455643 0.04507545 -0.23089185
0.139467 -0.03166513 0.2265435
-0.04455991 -0.01240733 -0.42143067
0.10331416 0.10686197 -0.08636607
0.1507349 0.11979567 -0.17303287
0.10151157 0.20966510 -0.37594368
0.15713108 0.04524354 0.11326488
0.11615283 0.12819244 0.17469406
-0.12394684 -0.08030514 -0.28040735
-0.0388488 0.23142099 -0.14445768
-0.146621 0.01222112 0.20430192
-0.0715409 0.21311572 0.00595612
-0.1122268 0.11606986 0.26629787
-0.14508953 0.09696812 0.28475662
-0.1287958 0.04297355 -0.22697744
0.0982867 0.11804240 0.2954613
0.10223503 -0.01859558 0.06640951
0.13586734 0.02517034 -0.27966889
0.04794548 0.21974803 -0.30978009
-0.08516437 0.22540065 -0.07652359
-0.15923851 0.06309173 -0.26738453
0.11883733 0.03452221 -0.22351551
-0.03936324 0.09795600 -0.21309933
0.11077966 0.11109402 0.22434806
-0.12682114 0.05540400 -0.3812574
-0.144729 0.00732676 -0.27540685
-0.13274436 0.01745446 -0.32087793
-0.0090644 0.03320608 -0.26080022
0.04445096 -0.01556583 -0.36370124
-0.10781225 0.02426374 0.18240947
-0.14718159 0.10723825 -0.12064523
-0.04356463 0.08856834 0.28543343
0.15690333 0.07864795 0.01911552
-0.15729548 -0.07992928 0.21875072
-0.1525802 0.08857824 0.06244471
-0.03250131 0.21071945 0.03263802
0.0575311 0.11165739 -0.41398895
0.135003 -0.02059136 0.09841663
-0.0585992 0.22072690 -0.16128337
0.09101109 0.15802529 -0.10055548
-0.08807656 0.09795600 0.07430627
-0.08007497 -0.01633674 0.24712525
-0.1209467 0.18752152 -0.22011309
0.11262215 -0.08258326 -0.29909443
0.06680885 0.20427763 -0.38902293
0.11417534 0.00146673 -0.32997104
0.11094997 0.11430442 0.19642532
-0.05944518 -0.01637354 0.24561361
-0.07164856 0.14228693 -0.09806668
0.05899152 0.23142099 -0.13860961
0.08810277 -0.02442492 -0.41810903
0.15070736 -0.01310438 0.00898049
0.0033318 0.22014068 -0.36036324
-0.03530278 0.14309223 -0.26665768
0.14298828 -0.07487866 0.20750608
-0.15309182 0.04989349 -0.26668726
0.10458741 -0.08594471 0.24862702
0.12501897 -0.05654896 0.24183075
-0.13639712 0.14311293 -0.08005662
0.14757018 -0.08344771 0.21299053
0.01685745 0.00610905 -0.45608485
-0.15270248 0.00324339 -0.06285747
-0.14548906 -0.05623425 -0.23338999
0.02258321 0.03070950 -0.31733788
0.15760872 0.06970408 0.16810665
0.07456752 0.13546477 0.1055682
-0.08687793 0.14952310 -0.10064957
0.09268222 0.09795600 -0.0427437
-0.11949418 0.09795600 -0.02255109
0.15574196 0.04094285 0.17868258
-0.01184379 0.21827433 -0.05548736
0.00470624 0.09795600 -0.20621503
0.04392354 0.09283640 -0.22576641
-0.105475 -0.00342311 -0.19968118
0.1229487 0.18318161 -0.24623241
-0.12017652 0.11501657 -0.08897623
-0.09041973 0.12721001 0.15045562
-0.107455 0.02715391 0.28875936
-0.11869653 -0.01238496 -0.41457055
-0.080546 0.04153138 0.25326403
0.14872456 -0.04200146 0.18669056
0.10928461 0.03270387 0.30025175
-0.04516942 -0.01674115 0.23051147
-0.04395244 0.09795600 0.04647275
-0.06179012 0.21937195 -0.10884205
0.11496631 0.19612221 -0.3766494
0.13472036 -0.01879462 -0.02328191
0.08393523 -0.01290104 0.16422661
0.15709954 0.02402229 -0.11982435
-0.11681778 0.03726922 0.18915694
-0.13810089 0.02092466 -0.24060979
0.0583195 -0.02662835 -0.40192713
0.11876697 0.12363822 -0.09173589
0.137862 0.00014177 0.27220276
-0.15103324 0.09162104 -0.33051511
-0.15841867 -0.03721543 -0.28454967
-0.07612108 0.09795600 -0.0889076
-0.14488511 0.12787955 -0.13515956
-0.1130248 0.01721679 -0.32479786
-0.13525816 0.09767953 -0.28755611
0.1596762 0.01220684 0.16094267
-0.02521221 0.05972756 0.36784768
0.04320593 0.20422478 -0.38281137
0.15514817 0.06656203 -0.37371329
-0.1327297 0.06172759 0.24121001
-0.107455 -0.08547522 0.24178682
-0.08732697 0.11854966 -0.06497217
0.07132855 -0.01835510 -0.20137584
-0.01356715 0.22110956 -0.22834074
0.02762858 0.02403637 -0.4632718
0.00963797 0.07416807 -0.44506239
0.1218345 -0.01430500 -0.37693304
-0.13041207 0.14770792 -0.06517417
0.14161288 0.14404781 0.01590795
0.12173172 -0.07831024 -0.30724259
0.00089673 0.21293906 0.0259487
0.14631244 0.01193333 -0.21891372
-0.12771313 0.10097332 0.32618444
-0.14575501 0.00043183 -0.31132954
0.13895626 -0.05684564 0.2755411
-0.10921863 0.04656160 0.22562626
0.11620902 -0.04695887 -0.32388832
-0.07733214 -0.01849700 0.0564864
0.05243814 -0.01849700 0.01056891
-0.06223933 0.13292533 0.15553397
0.02453473 0.20528768 -0.06329683
0.15802225 -0.03224664 0.05040688
-0.15504873 -0.03942317 0.24331494
0.04319949 0.09752657 0.22945364
0.14403379 0.09260413 -0.25326453
0.14999167 0.11630374 -0.28112325
-0.05194096 0.08474646 -0.23718541
0.15524156 0.07973548 0.27449401
-0.09453307 -0.01857357 0.02385028
0.146895 0.05381326 -0.27719579
-0.12408424 0.17423095 0.06821034
-0.13458223 -0.03792792 -0.2914058
0.0723012 0.13130279 0.17485715
-0.1188318 0.12959380 -0.43056664
-0.086695 0.00453545 -0.24753337
-0.07099785 -0.02371297 0.34993489
0.12903108 0.10168438 -0.29207434
-0.01907284 -0.01203884 -0.42816536
-0.15526111 0.05531004 0.31051249
0.11896056 0.14482747 -0.26513997
-0.160245 0.01564488 -0.20872914
-0.11399347 0.19490301 -0.34502864
0.00820276 -0.01849700 0.08805937
-0.10592126 0.10359410 -0.31541958
-0.09866856 -0.01859171 -0.05470629
-0.14910883 0.09933459 -0.36273164
-0.12105913 0.10226988 -0.42164029
-0.158785 -0.03338358 -0.16061914
-0.0342813 0.17894519 -0.41315646
-0.1292646 0.01113328 0.28523209
-0.14716993 -0.08394856 -0.26172074
-0.15153256 0.09890711 -0.09090881
0.15568353 0.08704517 0.0700059
0.15780321 0.05370645 -0.33907588
0.01472982 0.03112782 -0.3096228
-0.11865647 -0.01163768 -0.42722393
0.05531257 0.12197155 0.29786517
0.09959585 0.21639919 -0.07382209
0.01115155 0.12990167 -0.44323435
0.16251378 0.04988495 -0.32470179
-0.12080454 0.17887706 -0.36815651
-0.14234749 -0.03645351 -0.28258701
0.13459068 0.00733540 0.2649486
0.03689098 0.22019475 -0.28461912
0.12432302 0.05214857 -0.28415737
-0.09749489 0.00822166 -0.19651406
0.0213669 0.10463770 -0.08565412
0.11545023 0.02478048 0.29720079
-0.01233959 0.09795600 0.02734394
-0.09845722 0.10035614 -0.27583735
0.15339543 -0.09095559 0.2491031
-0.07730721 0.20514276 -0.20409116
0.15010299 0.10516420 0.05433923
-0.04800702 0.09795600 -0.14335822
-0.05225882 -0.01849700 -0.18338489
-0.13023629 0.12618292 -0.25227285
-0.14708271 -0.01342343 0.00306575
-0.14620499 -0.04163719 -0.27000455
-0.14410201 -0.03367252 -0.30912858
-0.03656803 -0.01849700 -0.09648951
-0.14712842 0.11797257 0.08437217
-0.07405796 -0.01849700 -0.0584803
0.12166694 0.01754760 -0.21185934
-0.09773902 0.09795600 -0.03381207
-0.02065583 0.20543856 -0.01748089
0.13656435 0.15579995 -0.21397044
0.12213993 -0.01871180 0.01368743
-0.12789922 -0.01877212 -0.07789234
0.147397 -0.04278950 -0.26138589
0.11934261 0.09854431 0.32378843
-0.02464771 0.02551700 -0.44375272
-0.14410201 0.00789149 -0.2283369
0.13516195 -0.00122455 0.22937155
-0.08252451 0.20243180 0.02296271
-0.15255303 -0.05575209 0.18637933
0.00714291 0.13157927 0.13049899
0.1272166 -0.00149796 0.31030023
-0.14729999 0.01631946 0.182742
-0.14173713 -0.01588086 0.13114752
0.07114215 -0.01883928 -0.43924039
-0.07633616 0.20685732 0.03559786
-0.04191165 -0.00829417 0.38563916
0.04383385 0.12584660 0.26370646
-0.146621 -0.03340451 0.2014933
0.1330294 0.15901445 -0.33138702
-0.1300396 0.15771676 -0.35351368
0.04823915 0.03417626 -0.22464662
-0.1155902 -0.08413129 0.23980597
-0.03469904 0.21865670 -0.36881032
0.02999996 0.21830638 -0.37382862
0.03749575 0.09795600 -0.20478581
-0.06796325 0.09795600 -0.23668334
-0.1374789 0.04109718 0.26415998
-0.08404101 0.18704429 0.06823072
0.00489205 0.00440030 -0.45606281
-0.14534433 0.07664494 -0.28542815
0.03531449 0.10541263 -0.33765016
-0.11582394 0.05464121 0.24021193
-0.11386979 -0.07519868 -0.29999865
-0.107455 -0.01054896 0.17115872
-0.12180277 0.17956955 -0.32531767
0.15589983 0.00412075 -0.00621227
-0.140481 0.00241546 0.27822425
0.08361604 0.01653833 0.26273929
-0.14542565 0.05483067 -0.30322047
-0.13063855 0.16718241 0.00336635
-0.03858692 0.21626078 -0.01950163
0.14700005 0.12921063 -0.25910113
-0.086695 0.01448766 -0.21780424
0.0972761 -0.01856483 0.04969021
0.15320896 0.10449584 0.07957591
-0.15422321 0.06497084 0.10473702
0.14009727 0.04282947 0.23477305
-0.14400284 0.09795600 -0.05586348
-0.15792383 -0.07743154 0.25262835
-0.0049972 0.02622682 -0.42930544
-0.11725956 0.03336700 0.27628817
-0.14454946 -0.06460883 0.27734098
-0.14629718 0.03012117 -0.21256244
0.11260484 -0.03294314 0.17458419
-0.08357661 -0.01612868 -0.353414
-0.14462558 0.01296387 -0.20569769
-0.11455143 0.12843666 0.14022128
0.12178457 0.04836589 -0.40842109
0.10093193 0.10694187 0.24139095
-0.0896043 0.00376869 -0.19489083
0.03863248 0.02888814 -0.36203814
0.13775379 0.15315609 0.08423211
0.1508818 -0.01572909 -0.3421325
-0.08023374 -0.02371218 0.34824064
-0.14410201 -0.00121397 -0.21737476
0.03442707 0.09795600 -0.10462402
-0.16000444 0.13119764 0.0743152
-0.12403319 0.13333385 0.13026598
-0.128741 0.02295376 -0.27837965
0.11904192 0.06018609 -0.26269593
-0.16235799 -0.01220798 0.23844917
-0.15440036 0.06446141 0.14977412
0.00687464 0.13366938 0.0867754
0.13408091 -0.07193756 0.25684845
-0.02078193 0.14898136 -0.43126584
-0.13445647 0.09795600 -0.15207395
0.1349787 -0.03427345 0.27168898
-0.13021816 0.15941737 -0.31985406
-0.11246845 0.19554901 -0.37331793
0.16036216 0.05389450 -0.27455802
-0.13827844 -0.06944573 0.18612506
-0.00340932 0.02561299 -0.44403378
0.006739 0.12764164 -0.44223011
-0.13354167 0.15594136 -0.21394833
0.147397 -0.03864314 -0.28277849
-0.15283416 0.00352548 0.03632329
-0.07820356 0.20410857 -0.04560476
0.10350803 0.11472747 0.17866686
0.14792964 0.03887526 -0.42256969
-0.13628108 -0.03065446 0.17270502
0.10111762 0.00217820 0.37617057
-0.14620499 0.01524256 -0.30798677
0.14790019 -0.07031113 0.19405736
-0.13720058 0.07860083 -0.26969341
-0.13978992 -0.01998360 -0.28878164
-0.12397995 0.13047894 -0.23661501
0.136023 0.01122892 0.26760886
0.13192816 0.04483611 0.23529504
0.13345232 0.15196477 -0.07683371
0.00941973 0.03407231 -0.22852034
-0.13822647 -0.02104141 -0.20597435
0.08392411 -0.01848047 -0.19189355
0.07007472 -0.02727382 -0.39912856
-0.14602898 0.11849316 0.15458457
0.15017501 0.02306905 -0.28490591
0.10395062 0.20220079 -0.02444469
-0.15005252 0.05886945 0.27369343
-0.15392251 0.02829644 -0.25442993
0.13995145 -0.07145072 0.25657598
0.09608613 0.07995305 -0.24459228
0.15386304 0.10142370 0.04951458
-0.00235969 0.04615543 -0.30208017
0.14216401 -0.02097895 0.27808408
0.08216281 -0.01785126 -0.23948654
0.15362841 -0.00451014 -0.10287008
0.05339831 0.11109215 -0.06277975
-0.08373745 0.20395615 -0.04879581
-0.01318681 0.03261212 -0.28226177
-0.13161899 -0.01879369 -0.11116793
0.1369574 0.15626742 -0.11325985
0.14883437 0.12489612 -0.17484247
0.18792022 0.14403703 0.06807038
0.14478612 -0.01042974 0.31645641
-0.04567158 0.23126585 -0.131294
0.08377311 0.00983113 0.20999577
-0.0824692 0.03347815 -0.25066163
0.00673477 -0.01849700 -0.11818158
0.139467 -0.00021425 0.25361525
0.11852612 -0.05845609 0.19398232
0.08433514 0.20521428 -0.13864295
-0.0360119 0.03370727 -0.24212334
-0.09948104 0.08179199 0.33823913
-0.086695 0.00801192 -0.20595749
0.14226076 -0.04270826 -0.20895252
-0.144729 -0.03324723 -0.29089642
0.11504736 0.12675001 0.14098576
0.13538061 -0.08336495 0.27739832
-0.14620499 -0.02601406 -0.31636681
0.089642 0.03813684 -0.31194549
0.12997439 0.11390249 0.23040744
-0.05706263 0.20539614 -0.09417055
-0.12687465 -0.07248699 -0.30504836
-0.14908989 0.00793452 -0.38877962
-0.02278306 0.05755296 -0.27855297
-0.05425256 0.11591091 0.14603156
-0.02198855 0.11963356 -0.08336703
-0.03427533 0.14827134 -0.43134302
-0.07974555 0.22970953 -0.22681331
-0.09303498 0.21927356 -0.21543467
0.07001012 0.07150964 -0.44743483
0.145586 0.01402271 0.27408727
0.12719168 -0.07911615 -0.27816716
-0.11079894 0.21265522 -0.0665258
-0.05332066 0.14257736 -0.07636091
0.10373201 0.12143785 -0.43651289
0.02947099 -0.02198104 0.38073497
0.163692 -0.08795802 -0.26418641
0.12989511 -0.02646533 -0.33162854
0.09646526 0.10016060 -0.27344704
0.13984343 -0.03939700 0.11804534
0.04275526 -0.00505830 -0.46043778
0.16078452 -0.03062954 -0.17981202
0.00645101 0.20535185 0.05467619
-0.15843236 0.04153417 0.21260694
-0.12761636 0.01275418 -0.21301677
0.01039346 0.08009978 0.38155836
-0.05292235 0.12838712 -0.23596557
0.11390186 0.05788270 0.25507987
-0.15709553 -0.01948667 0.29893703
-0.12960775 0.16922340 0.03003743
-0.01536353 0.20550996 0.01276803
0.14903247 -0.01839454 0.19728323
0.15438449 0.10045126 -0.27907754
0.12912658 -0.01861344 -0.33430324
0.102618 -0.08224851 0.26296675
-0.15552047 -0.03939800 -0.18134103
-0.11510792 0.20338242 -0.14903823
0.02104111 0.20509863 -0.11248056
0.00328852 0.03438076 -0.21702601
0.11552801 0.04998293 -0.23790701
-0.10416635 0.20494391 -0.28051692
0.05214716 0.12784313 0.16027502
0.10248662 0.10469668 0.26018721
0.04382158 0.10856438 -0.37617855
-0.02017608 0.09744377 0.19893269
0.12262739 -0.06332404 -0.2240619
0.13798382 0.01712573 -0.21051607
-0.12164287 0.10165947 -0.29176991
-0.146621 -0.03767525 0.21662272
0.07935911 0.23142099 -0.29012109
-0.1559791 0.02094186 -0.23496219
0.13742857 -0.02872356 -0.05585823
-0.01043476 0.20451191 -0.27073303
0.07770839 0.03438731 -0.21678183
0.03646006 0.11592976 -0.08926853
0.15588675 -0.02063542 -0.20273572
0.15783501 0.01637083 0.06219482
-0.16072318 -0.05210663 -0.26347212
-0.13373507 0.02561872 -0.3515645
0.03012962 0.09795600 -0.11274404
0.05942434 0.09795600 -0.12786634
-0.05657831 0.21651257 -0.03562478
0.1151331 0.09795600 0.06839867
-0.080546 -0.01203889 0.1978161
0.00836315 0.03446642 -0.21383404
0.147425 0.01031248 0.26546482
-0.12547224 0.07854843 -0.2565041
0.145743 -0.00484512 -0.22118269
0.11200862 -0.01042470 0.31645572
-0.11824675 0.11885721 -0.09020556
-0.00537064 0.09872399 -0.25588529
0.14469712 -0.07715759 -0.24906714
-0.12739416 0.17168539 -0.1766403
-0.10540224 0.11151529 -0.41225182
-0.12222726 0.08679982 -0.40246889
0.155288 -0.02059672 0.31211362
0.129293 -0.07875124 -0.25435777
-0.15214937 0.05435449 -0.27530626
-0.14740406 0.11102151 0.19847822
-0.03043685 0.21710821 -0.03633718
-0.12079174 0.09795600 -0.19776348
-0.03479246 0.03036531 -0.34042243
-0.10826391 0.17200519 0.08297596
0.08354083 0.00863268 0.29628787
-0.14002716 0.02603746 -0.33553665
-0.09385911 -0.02230743 -0.42971091
-0.12161061 0.18863361 -0.05528039
-0.047597 0.11471817 -0.23172183
0.13795685 -0.08544065 0.2178655
-0.13455118 0.15293378 -0.24959312
-0.11516661 0.09933474 -0.26335129
-0.09013045 0.14207974 -0.07590109
0.09547883 0.20497662 -0.26968608
-0.144729 -0.00854551 -0.28731286
-0.15556319 -0.04894924 -0.29560751
0.06508111 -0.01683936 -0.31602596
0.14185099 -0.00783346 0.28972999
0.15237024 -0.03939700 -0.12563042
0.01056543 0.20540102 -0.00545251
0.14042818 0.14167521 -0.34498262
0.14024149 0.06495522 -0.30679397
-0.05404477 -0.01849700 0.02330526
-0.13218507 0.10237349 0.31474906
0.06050776 -0.01664666 -0.31938664
0.12689545 0.01580674 0.35914577
-0.00266599 0.22005463 -0.36216384
0.1099673 -0.01425016 -0.3827439
0.06317403 0.11860610 -0.44192231
-0.13514945 -0.03699512 -0.31956658
-0.14813883 0.00670209 0.27111558
0.12742511 0.04931805 -0.23086452
0.12946433 0.17580097 -0.0526142
-0.09644025 0.20527174 -0.18339914
0.12320343 0.19206712 -0.07418008
0.15820876 -0.02726233 0.14230183
0.08765215 0.01693958 0.30775756
0.10487593 -0.01861090 0.06418266
-0.01319389 0.13118622 0.16824934
0.00867393 0.09795600 -0.09407232
-0.09136881 0.21886428 -0.29058638
0.06159261 0.21288318 0.01509499
-0.00463834 0.05827915 -0.44716892
0.07049154 0.12146573 0.30119246
-0.03275474 -0.01849700 0.00168814
0.10579034 0.00829644 0.37677722
-0.08276282 0.22012560 -0.15310827
-0.15120721 0.10112679 -0.11488957
0.1533612 -0.07322304 0.27628717
0.149721 0.02868060 -0.23414684
-0.13762933 -0.07997302 0.2532752
-0.00913135 0.01169141 0.39648762
-0.13166279 0.09795600 -0.24067777
-0.080546 -0.01456468 0.225452
-0.144729 -0.02058219 -0.2606086
0.1573914 0.05059485 -0.1846685
-0.04743251 0.03400143 -0.23116182
0.14340597 0.00316817 0.24281172
0.01348133 0.21993659 -0.36124512
0.10690748 0.21172992 -0.0272633
-0.13316312 -0.03921910 -0.21607078
0.12352723 0.08664449 0.33635137
-0.0695406 0.04767451 0.38714944
-0.050031 0.09795600 -0.18195657
-0.15552171 -0.02674390 -0.33914923
0.10334967 0.21687082 -0.22626023
-0.13241692 -0.07985159 0.27238595
0.148073 -0.02930103 -0.31801542
0.04434696 0.04543960 0.3909357
0.15675376 -0.03224684 -0.14001581
0.03812843 -0.01152089 0.38209439
0.08350635 -0.00423300 0.31500999
-0.14496445 -0.03224882 -0.10426995
0.15544808 0.00331766 -0.16213114
-0.13167328 -0.01744926 -0.31282115
-0.06802274 0.09795600 -0.1619219
0.1122913 0.02971166 -0.33540834
-0.149728 0.01219544 -0.22116335
0.14336862 -0.00586809 -0.34087983
-0.14410201 0.02449905 -0.27185722
-0.12188651 0.18835711 -0.04935323
0.01683355 0.10029620 -0.27510461
0.10088674 0.20485758 -0.29721838
0.12851981 -0.02633383 -0.20185581
-0.14647745 -0.02209169 0.30783855
-0.07991564 0.14402615 -0.2669818
-0.12832438 -0.07639391 0.26201457
0.13511306 -0.03412183 0.18201253
0.10492503 0.01443931 0.16334991
0.13314438 -0.00061688 -0.34021276
0.15025153 0.10566430 0.05979018
0.15700926 0.00819519 -0.08308451
0.09462773 0.21831821 -0.32638899
-0.07051928 0.11216246 0.15056012
0.06708017 0.22027035 -0.2100039
-0.14361617 0.11079944 -0.31277093
-0.14699703 0.10466998 0.01639091
-0.01787689 0.19107726 0.07565161
0.05293551 0.15082132 -0.2554536
-0.04985251 0.03403886 -0.229767
-0.12183375 0.04437589 -0.30488592
0.102618 0.02947178 0.20034738
-0.11358899 0.09795600 -0.18316106
-0.15224688 0.05295892 -0.37756996
0.01875882 0.10269462 -0.4507895
-0.13095387 -0.03258777 -0.33086577
-0.11050694 -0.01061508 -0.4454189
-0.12533175 0.01456046 -0.28912264
-0.02533725 0.15891620 0.12116169
-0.160256 0.03623791 0.20126981
0.12765375 -0.00830726 0.35535492
-0.14238878 0.13424443 -0.06598575
0.15381272 -0.01930668 0.21958799
-0.00864923 0.07046164 0.38444597
-0.13364361 0.02451422 -0.31786119
-0.15479382 0.05912772 -0.33603825
-0.10073235 0.11653926 0.29390721
0.1429584 0.04079180 0.26957218
-0.00265308 0.03101543 -0.31680637
0.14012299 -0.04589926 0.20254844
-0.15288167 0.00478347 -0.08198836
0.13510686 0.05129073 0.26146202
-0.14720224 -0.03564518 -0.29284454
-0.139879 0.02050708 -0.23912272
-0.1159105 0.10272640 -0.22799879
-0.08686468 0.05498127 0.25545095
0.10820222 0.05863877 -0.29073556
-0.1422398 0.02465293 0.24742206
-0.14346012 0.08709732 -0.24877779
0.0600367 0.03434452 -0.21837661
0.00678352 0.02917770 -0.35727024
-0.107076 -0.07489826 0.2085714
0.12568862 0.08531548 -0.35758245
-0.06089477 0.12942546 0.16701268
-0.05584244 0.10001190 -0.27162918
0.14448263 0.03282354 0.30708815
-0.02251573 0.02551700 -0.45799119
-0.02373533 -0.01702258 -0.30216688
-0.09228216 0.20177513 0.00256737
0.11191779 -0.07652328 0.27071965
0.14122807 -0.03181220 -0.29656664
-0.10617534 -0.01864586 0.01646775
-0.1429928 0.13132380 -0.2713741
-0.0603298 0.12063763 0.30915706
0.12375382 0.08328424 -0.42623955
-0.06216957 0.21957685 -0.29250832
-0.12084309 0.07833721 -0.42038268
-0.07487903 0.12638741 0.25046371
0.1345527 0.12160103 0.16174457
-0.139879 0.00201992 -0.23523892
0.15498405 -0.03675248 -0.25445307
0.05183583 0.00250668 0.3955827
0.11001907 0.14599115 -0.26766378
0.12170054 -0.05199115 -0.32352312
-0.079745 0.22613505 -0.08067952
0.1196656 0.10550962 0.32063552
-0.15040448 0.10524441 -0.22615399
-0.1086899 0.04967788 -0.27368332
0.02999131 0.19811329 0.06402829
0.00951081 0.09795600 -0.16846529
0.13586742 0.09483984 -0.30574768
0.06388417 0.03225335 -0.33077737
0.02933785 0.16716784 0.10905361
-0.02922454 0.10582959 -0.34274731
0.14956796 0.00735152 -0.26502317
0.15241373 -0.00440396 -0.20193202
0.15319792 0.11011453 -0.01977495
0.14216401 -0.03172174 0.19786177
0.11979342 0.02591307 -0.33656274
-0.07207743 0.18078662 0.08131378
-0.08646112 0.10226560 -0.29917952
-0.05659566 0.02953934 -0.36543724
0.16349557 0.01068050 -0.20642109
-0.03437892 0.22127204 -0.15906535
0.09382407 0.09795600 0.0145075
-0.14158258 0.13573901 -0.19254477
-0.15490854 0.06749860 -0.06042157
0.164216 -0.06581275 -0.22051661
0.15577487 0.11522068 0.08642017
-0.11609348 0.06974451 -0.3931407
-0.14144118 -0.07916821 0.21688901
-0.13263465 0.00524064 0.19355924
0.14073201 -0.04056098 0.25718583
0.01362055 0.07732835 0.3340826
-0.143426 -0.00704008 -0.28754661
0.1391139 0.01729195 -0.24649085
0.07152699 0.21710911 -0.05082783
0.13506611 0.14773011 -0.22737106
-0.14824581 0.01670623 -0.23321368
0.08780348 0.09738874 0.29248972
-0.04652773 0.09795600 0.02874872
-0.15576632 -0.06951238 0.20149145
-0.04117201 0.21677618 -0.03384691
-0.07516029 -0.01849700 -0.13355333
0.12236385 0.19187334 -0.16734139
-0.15353103 0.08256308 0.00666466
-0.11132606 0.01597363 0.35152758
0.05095664 0.10019924 0.22096037
0.05700418 0.10944577 -0.25497993
0.16000627 -0.03224632 -0.16391402
0.109446 0.04895137 -0.25628116
0.15446482 0.04809403 -0.3919034
0.00962197 0.22132966 -0.21894545
-0.07552264 0.20495972 -0.25452995
0.02428179 0.05104571 0.38948039
-0.15745449 0.05628420 0.29331044
0.102618 -0.01590478 0.18011156
0.09701475 0.09795600 -0.01035111
0.12247809 0.02586064 -0.36632629
-0.15403653 0.03310845 -0.00247602
0.14327814 0.04381357 0.23748618
-0.14291556 0.01295276 0.25991088
-0.11488192 0.05833111 -0.27535034
0.11305065 -0.05402992 -0.32506719
0.1299269 -0.03697367 -0.2014262
-0.07333079 0.03802082 -0.31887194
0.14072211 -0.03457172 0.18445233
-0.0468626 0.15058351 -0.10102668
0.01830601 0.09012497 0.24822991
0.11474347 0.00009466 -0.19506007
0.13689198 0.05651313 -0.24846312
-0.00866068 0.09795600 -0.03515318
0.11197111 0.03373084 0.19600162
-0.11209908 -0.06990582 0.27835969
0.11905433 -0.05323224 -0.32256161
-0.14620499 -0.02488124 -0.30055565
-0.12433419 0.17513347 -0.29804786
0.163692 0.01711339 -0.20477199
-0.144581 -0.02902494 0.27368796
-0.15974601 -0.07478045 0.20082212
0.1398222 0.14856745 0.03262371
-0.1537985 -0.04812936 0.26363671
0.04131526 -0.01750085 -0.26599098
-0.02032323 0.08649910 -0.44400702
-0.12476892 0.04475213 0.22569914
0.07334807 0.13316210 0.18283757
-0.0421657 -0.01649827 -0.34182483
-0.15987216 -0.03184839 -0.24517705
0.1179657 0.20393655 -0.11960643
-0.14529492 0.12656751 -0.02319256
-0.01360407 0.03215610 -0.29302598
0.03244524 -0.01849700 0.01580929
0.13440635 0.02097798 -0.21171122
-0.12296754 -0.00723836 0.15917905
-0.12142185 0.00029146 -0.19355482
0.16258619 -0.07598542 -0.2395599
0.13545264 0.05427190 -0.42452162
-0.01167866 0.08232462 0.37580129
0.0552318 0.08964244 -0.23042852
-0.15888843 0.06835757 0.26838479
-0.14980018 0.11416200 -0.04015148
0.03003005 0.15199002 0.12993896
-0.15453763 0.06616045 0.02877101
0.131428 -0.06451412 -0.30945297
0.15875023 0.01395134 -0.33538893
0.109836 0.02008593 -0.21003846
0.12071209 0.04749430 -0.24600287
0.0473864 0.20462910 -0.2964575
0.15446384 0.09913573 0.00330912
-0.13363934 0.01484413 0.28967159
0.10226167 0.20376666 -0.07608274
0.13703121 0.10676673 -0.36982578
-0.13452589 0.06048423 0.21050488
0.15520738 -0.00423837 -0.26361852
