# .PCD v0.7 - Point Cloud Data file format
VERSION 0.7
FIELDS x y z
SIZE 4 4 4
TYPE F F F
COUNT 1 1 1
WIDTH 1416
HEIGHT 1
VIEWPOINT 0 1 0 0 0 0 0
POINTS 1416
DATA ascii
-0.00829573 0.05463009 -0.00557474
0.00859542 -0.54050282 -0.036919
-0.09730714 -0.55654918 -0.002315
-0.00752631 -0.40157865 -0.002315
0.03464697 -0.35418504 -0.002315
-0.1088732 -0.31789681 -0.00627903
0.04703744 -0.59753582 -0.02698738
0.06532361 -0.49794462 -0.036919
-0.00271467 0.13700978 -0.00342633
0.01807071 -0.49924937 -0.036919
0.09998609 -0.49063952 -0.0191885
-0.0109449 -0.58670031 -0.036919
-0.03135148 0.17166536 -0.00252254
-0.11498549 -0.34398470 -0.036919
0.001677 -0.19677544 -0.01193737
0.05865967 -0.38591560 -0.002315
0.00907275 -0.57876770 -0.002315
-0.12995878 -0.55037010 -0.03307557
0.03194832 -0.59736601 -0.036919
0.07896093 -0.35815722 -0.02186731
-0.02702499 -0.60413098 -0.00652128
-0.03766527 0.31837434 0.00360205
-0.04193042 0.27719000 0.001451
-0.03521062 -0.05826407 0.001451
-0.0467229 -0.48358100 -0.036919
-0.01687746 -0.34390874 -0.002315
-0.036871 0.23211457 0.00037681
0.06184326 -0.39195964 -0.02745638
-0.09976609 -0.38119268 -0.00883782
-0.11598488 -0.46010041 -0.002315
-0.02914323 0.33703152 -0.001956
-0.04011699 -0.51479811 -0.002315
-0.02946596 0.21567996 0.001451
-0.00918765 -0.13878441 -0.01061887
0.05712009 -0.44014289 -0.036919
-0.032237 -0.23059823 0.001451
0.02339128 -0.45345149 -0.036919
-0.100223 -0.38007553 -0.0316154
-0.02952154 -0.18451630 0.001451
-0.00977952 -0.20168006 -0.01225915
0.0464505 -0.48017362 -0.002315
0.02784853 -0.53381558 -0.002315
0.001677 0.06361741 -0.00096819
-0.02528736 -0.29521443 -0.03147348
0.02780299 -0.59687903 -0.002315
0.04381452 -0.57752916 -0.002315
-0.08770861 -0.48322323 -0.036919
0.001677 0.17611421 -0.00084746
0.001677 -0.19943909 -0.00112314
0.02047395 -0.50425907 -0.036919
-0.0511956 -0.52989912 -0.002315
0.02462522 -0.52758053 -0.036919
0.00672312 -0.59760019 -0.036919
-0.0001464 0.12984391 0.001451
-0.06913886 -0.46151160 -0.002315
0.02808786 -0.36622903 -0.002315
0.001677 -0.18417216 -0.00627388
0.00136573 -0.32034722 -0.0027332
0.03195997 -0.51787221 -0.036919
0.02882766 -0.47075708 -0.036919
-0.11224947 -0.57826677 -0.02783413
-0.0368438 -0.30439499 -0.03414286
-0.02079367 -0.32301426 0.001451
0.08915081 -0.53531501 -0.002315
-0.01471421 -0.54512608 -0.00145113
-0.04077609 -0.59008304 -0.036919
-0.03900951 -0.57186278 -0.036919
0.01092158 -0.34200871 -0.036919
0.09223308 -0.46012500 -0.0160683
0.0002311 -0.03674629 -0.00795778
0.00366363 -0.45396691 -0.036919
0.00156368 -0.30801351 -0.03337426
-0.07873866 -0.49118161 -0.036919
0.00288478 0.34132293 -0.001956
-0.09727504 -0.38819000 -0.01206642
0.01384884 -0.57214180 -0.002315
-0.00187217 -0.44108638 -0.036919
-0.06129244 0.32288857 -0.00069994
-0.11208843 -0.32337018 -0.02234387
-0.02852299 -0.15389038 0.001451
-0.01334362 -0.33794002 -0.036919
-0.05031632 0.31357693 0.00033738
-0.03490228 0.34242410 0.001451
0.07249291 -0.34511976 -0.036919
0.001677 -0.27342170 -0.00120207
-0.07731863 -0.37007605 -0.036919
-0.09854767 -0.38417176 -0.02023217
-0.02271453 -0.37917511 -0.002315
-0.01376958 0.04161429 -0.00591419
0.08470448 -0.56715262 -0.03686679
-0.02697662 0.10793688 0.001451
-0.00833583 0.26465845 -0.001956
-0.05020327 -0.38786960 -0.036919
-0.03295331 -0.24631680 0.001451
-0.06358612 -0.34499099 -0.036919
0.04508429 -0.54445804 -0.002315
0.03783337 -0.31483990 -0.003032
0.03469974 -0.37330502 -0.036919
0.04692078 -0.34475352 -0.036919
0.07452714 -0.31975267 -0.01785235
-0.02964378 0.17755254 0.001451
-0.1096582 -0.36498321 -0.02132017
0.07514549 -0.43016801 -0.01786991
-0.02328029 -0.12966576 0.001451
-0.06818882 -0.57157512 -0.002315
-0.02689618 -0.35045472 -0.036919
-0.00082915 0.01528884 -0.00660074
0.06587673 -0.37370653 -0.002315
-0.0330274 -0.01910881 0.001451
0.04960001 -0.30735613 -0.00614482
-0.0919997 -0.54658277 -0.036919
-2.163e-05 -0.10204251 -0.00966066
-0.09693053 -0.30640404 -0.00682457
-0.04184761 -0.58012601 -0.002315
-0.09198835 -0.30439499 -0.02146849
-0.05825062 0.32211099 -0.00079788
0.10083 -0.51969361 -0.01686277
0.06451747 -0.41862174 -0.00299295
0.07756103 -0.52044230 -0.036919
-0.07817558 -0.51658984 -0.036919
0.05872417 -0.57236702 -0.036919
0.0035753 -0.32673556 -0.036919
0.03098525 -0.39647903 -0.036919
-0.0223498 -0.17394159 -0.01153575
-0.03647607 0.33850445 -0.001956
-0.09236801 -0.54903760 -0.002315
0.0195487 0.28142415 -0.00102806
0.06321259 -0.38600252 -0.03288707
0.05021911 -0.59613515 -0.0250111
-0.02321049 -0.14929937 -0.01089309
-0.05934799 -0.55115661 -0.002315
-0.03622875 -0.02808382 0.001451
-0.06865282 0.27969169 0.00283201
0.0610419 -0.31618410 -0.036919
0.02661119 -0.56668430 -0.002315
-0.04224103 -0.39384218 -0.002315
-0.08365285 -0.59783357 -0.01678781
-0.07947109 -0.37656134 -0.002315
-0.05134276 -0.58805700 -0.002315
0.00450634 -0.44357903 -0.002315
-0.09154297 -0.44379816 -0.036919
-0.02479859 -0.20241230 0.001451
-0.09155834 -0.55702934 -0.036919
0.08128605 -0.34875251 -0.01832858
-0.08628283 -0.31730310 -0.002315
-0.00453551 -0.10057205 0.001451
-0.03106019 -0.43143910 -0.001598
0.01658142 -0.42854190 -0.002315
-0.03059084 -0.00440109 0.001451
0.00079225 0.15689958 0.001451
-0.01926666 0.33158926 -0.001956
0.06998006 -0.31408804 -0.02074309
-0.04780731 0.35858334 -0.001956
0.07809012 -0.53837968 -0.002315
-0.00593299 0.34514658 0.001451
0.01432606 0.35908285 0.001451
-0.12695873 -0.46578799 -0.00594225
-0.05403073 -0.50484497 -0.036919
-0.0560735 -0.41889669 -0.036919
-0.0334779 -0.17042898 -0.01144414
0.00115147 -0.47423665 -0.036919
-0.01661875 -0.08893622 -0.00931886
-0.02132216 -0.31964324 -0.036919
-0.00049589 -0.43538229 -0.002315
-0.036871 -0.20238618 -0.01120935
-0.0045722 -0.38038488 -0.002315
-0.01363606 -0.06886346 -0.00879538
-0.09085217 -0.53417353 -0.002315
0.001677 -0.26019480 -0.00874747
0.08210936 -0.44014660 -0.03262132
0.09544965 -0.54516115 -0.036919
0.03356886 -0.33199988 -0.00319744
0.03266885 -0.57235137 -0.036919
0.02720683 -0.54012445 -0.002315
-0.03145811 -0.15855901 -0.01113458
-0.01570541 -0.08840747 0.001451
0.0428203 -0.48089840 -0.036919
-0.0216931 -0.12749690 -0.0103245
0.03324906 -0.39636684 -0.002315
0.001677 -0.19102730 -0.00909752
-0.00508469 -0.00307173 -0.00707957
-0.02526016 -0.24205560 0.001451
0.00336152 -0.39056731 -0.002315
-0.11192716 -0.48748862 -0.002315
0.03396921 -0.32202776 -0.02581452
0.0433439 -0.44215243 -0.002315
-0.11242477 -0.33628486 -0.002635
-0.05690036 -0.44589409 -0.002315
-0.07297181 -0.48710093 -0.036919
-0.00833337 0.04055688 0.002168
-0.13008984 -0.47304452 -0.02874962
0.01018864 -0.60413098 -0.02155996
-0.10256076 -0.57965573 -0.002431
0.09107524 -0.52400308 -0.036919
0.02346408 -0.51718901 -0.036919
-0.07392935 -0.59569111 -0.036919
0.01643505 -0.41908626 -0.002315
-0.07487709 -0.37283442 -0.002315
-0.11640597 -0.50655791 -0.036919
-0.02681559 0.24202990 0.001451
-0.00050702 -0.38387562 -0.002315
-0.03545047 -0.22831593 -0.0129538
-0.1154959 -0.35113845 -0.003715
0.04364543 -0.38162258 -0.036919
0.09641324 -0.49328146 -0.036919
-0.0440701 -0.36250103 -0.036919
-0.0152731 -0.16945244 0.001451
-0.00989425 0.30409221 0.001451
-0.10097381 -0.37850782 -0.03158993
-0.12399311 -0.53637240 -0.036919
-0.08361482 -0.51058704 -0.036919
-0.0103285 -0.32124230 -0.036919
0.001677 0.05324984 -0.00397841
-0.036871 -0.11545649 0.00132432
-0.03336008 0.10369094 0.001451
0.00676206 -0.51458223 -0.036919
0.07510185 -0.48548191 -0.002315
-0.01469967 0.27519364 -0.001956
-0.00110278 -0.27623073 -0.02021314
-0.02499684 0.29346681 -0.001956
-0.08375906 -0.54745814 -0.002315
0.03826313 -0.51561651 -0.002315
-0.03521052 -0.23682638 0.001451
-0.03387116 -0.35924264 -0.036919
-0.1316941 -0.54525721 -0.02378211
0.001677 -0.10437151 -0.00572601
-0.02559483 -0.54566988 -0.036919
-0.05142645 -0.42097585 -0.002315
-0.13258758 -0.52132737 -0.00277458
0.00583608 0.34755248 0.001451
-0.09467246 -0.51361853 -0.036919
0.07391422 -0.51071841 -0.036919
-0.05892149 -0.57442306 -0.002315
0.08028893 -0.54440965 -0.036919
-0.00173786 0.28434048 -0.001956
0.00281806 -0.35612170 -0.036919
0.0145114 -0.51336188 -0.002315
0.01539286 0.30230194 0.00161028
-0.09139073 -0.38989830 -0.002315
0.07406541 -0.32914438 -0.00249479
-0.05141282 -0.33511815 -0.036919
-0.03103724 -0.07454143 -0.00894345
-0.02160016 -0.38771708 -0.036919
0.04741192 -0.50440862 -0.00157893
-0.10381123 -0.32741093 -0.002315
-0.036871 -0.18546534 -0.00122363
-0.036871 -0.19185093 -0.00303765
-0.08595754 -0.59105630 -0.036919
-0.00893762 0.13642833 0.002168
-0.0143367 0.28121003 -0.001956
-0.07944823 -0.40378904 -0.036919
-0.06980446 -0.46470879 -0.002315
-0.10273081 -0.58688997 -0.01284099
-0.03658514 0.07234744 0.001451
0.001677 -0.29325322 -0.02587948
-0.02485922 -0.00181023 -0.00704667
-0.01461465 -0.56039007 -0.002315
-0.04146852 -0.47667710 -0.001598
-0.01269658 -0.20296368 0.001451
0.03511969 -0.60181410 -0.02845892
-0.01160314 0.13658600 0.002168
0.05442585 -0.43855007 -0.036919
-0.05179632 -0.40369138 -0.036919
-0.03379559 -0.45687905 -0.036919
-0.11490634 -0.45217620 -0.036919
-0.025173 0.12321109 -0.00378619
0.05813564 -0.40530737 -0.00244447
0.02157531 -0.51671040 -0.002315
-0.07385804 -0.47993876 -0.036919
0.07402679 -0.34126261 -0.002315
-0.01252257 -0.54187117 0.00591779
-0.12840518 -0.47251669 -0.036919
0.06255702 -0.41009539 -0.003032
-0.06365819 -0.44170702 -0.002315
-0.02706474 -0.59884364 -0.036919
0.03312075 -0.51224993 -0.036919
-0.04409832 -0.53653903 -0.036919
-0.12028252 -0.45430978 -0.00413006
0.09372023 -0.46403678 -0.01470062
-0.04043257 -0.31517764 -0.002315
-0.02891507 -0.46644731 -0.002315
-0.10182554 -0.44672991 -0.002315
0.07354791 -0.36812576 -0.0291994
-0.10217951 -0.56478955 -0.002315
0.05408416 -0.40632584 -0.002315
-0.0063191 0.04002452 0.002168
-0.04053512 0.27181942 0.001451
-0.06143419 -0.59982541 -0.036919
0.00094199 0.30802237 -0.001956
-0.07911745 -0.54928566 -0.002315
0.03457061 -0.33185493 -0.00281862
0.02761908 -0.39518415 -0.002315
-0.0992865 -0.32476548 -0.002315
-0.036871 -0.18716677 -0.00915671
-0.05008906 0.35279910 -0.001956
-0.06574709 -0.57946926 -0.002315
0.0653791 -0.35056650 -0.002315
-0.11059568 -0.54762504 -0.036919
-0.05970771 0.34068926 -0.00138302
-0.00291921 -0.34459881 -0.036919
-0.02869599 -0.24389837 -0.01336017
-0.08035694 -0.50144073 -0.002315
-0.02374895 -0.14819396 0.001451
-0.10534936 -0.56687539 -0.036919
-0.09049704 -0.42906465 -0.036919
-0.01579038 -0.00573127 0.001451
0.09698469 -0.47472604 -0.01501838
-0.09551184 -0.42566847 -0.036919
-0.00730977 0.17027498 -0.0025588
-0.10100941 -0.58804015 -0.02200077
-0.02201933 -0.39920018 -0.036919
-0.03151224 -0.23285670 -0.01307221
-0.12085189 -0.55869255 -0.00251553
-0.09552873 -0.35414282 -0.002315
-0.00192642 0.35983234 0.001451
-0.0123177 -0.29020394 0.001451
-0.05362987 -0.46250121 -0.002315
0.001677 -0.30125326 -0.02497443
-0.03626311 -0.44914109 -0.036919
-0.0231536 -0.06165262 0.002168
0.001677 -0.07322966 -0.00251047
-0.04993472 -0.54005106 -0.036919
-0.00299814 -0.18640001 0.001451
-0.09818126 -0.47960821 -0.036919
-0.01915685 0.21035262 -0.0015136
-0.03285985 -0.18856899 -0.01191722
0.02906579 -0.57259416 -0.002315
-0.07041299 -0.46786034 -0.002315
-0.02805338 0.16685488 0.001451
-0.02739893 -0.23459270 0.002168
-0.07016942 -0.30749893 -0.00280526
-0.07570512 -0.41238615 -0.036919
-0.00056656 -0.18914154 -0.01193215
-0.04678997 -0.43672174 -0.036919
0.03676263 -0.33988619 -0.02744424
-0.01980731 -0.42105975 -0.036919
-0.05671059 -0.32245721 -0.036919
-0.05072444 -0.31853298 -0.036919
-0.00535301 -0.25131993 -0.01355372
-0.11754121 -0.56886805 -0.036919
-0.03155742 0.07968519 0.001451
-0.01555166 0.21378715 0.002168
0.06382967 -0.47991014 -0.036919
-0.00781342 0.09344338 0.001451
0.00012787 -0.17711132 0.001451
-0.04957559 -0.54572192 -0.002315
-0.11091582 -0.51412055 -0.036919
-0.03599756 -0.41144361 0.001092
-0.01837849 -0.16387909 0.001451
-0.01736243 -0.48773825 0.001092
-0.01042296 -0.44120511 -0.002315
0.05596765 -0.49596146 -0.002315
-0.01462368 0.04707133 -0.00577187
0.05826748 -0.41885062 -0.036919
0.07263922 -0.55758437 -0.036919
-0.10512606 -0.49620124 -0.002315
-0.10689401 -0.31524677 -0.01033139
0.001677 -0.24692785 -0.00087257
0.02694097 -0.54802519 -0.036919
-0.0350208 0.07955563 -0.0049247
-0.02761509 -0.24438506 -0.01337287
0.04021192 -0.32560698 -0.002315
0.08674584 -0.46337148 -0.036919
-0.01269879 -0.29390529 -0.03069695
-0.03138608 0.11282411 0.001451
0.07460409 -0.32725501 -0.036919
0.01749694 -0.40165908 -0.036919
0.0004042 -0.45384247 -0.002315
-0.02971212 -0.35694045 -0.036919
-0.10970291 -0.51130952 -0.002315
-0.13165253 -0.54537970 -0.00453177
0.09948985 -0.48728348 -0.02555053
-0.05020441 -0.34214196 -0.002315
-0.00110953 -0.18825747 0.001451
-0.00876984 -0.54483300 -0.00014083
-0.03150144 -0.33214003 -0.036919
0.00126882 -0.06162293 -0.00860655
-0.04157179 -0.54483300 0.00295626
-0.0293796 -0.11653880 0.001451
-0.08055287 -0.44951618 -0.036919
-0.08551839 -0.38803280 -0.002315
-0.02153248 -0.39786381 -0.002315
0.04074583 -0.57088534 -0.036919
-0.10557072 -0.43680996 -0.02045345
-0.02505683 0.21435116 0.002168
0.09855731 -0.53060559 -0.036919
-0.06589249 -0.49878859 -0.036919
-0.02348345 -0.04472490 0.001451
-0.00270761 -0.49797401 -0.0022395
0.00502928 -0.49432959 -0.001598
-0.06542569 -0.30439499 -0.03299075
0.06856617 -0.31255009 -0.01262796
0.00790944 -0.58041832 -0.002315
-0.06802059 -0.60236746 -0.00425941
0.01183548 0.28024208 0.0012986
-0.08377033 -0.55151520 -0.002315
0.03540874 -0.37500485 -0.036919
-0.040104 -0.31379544 -0.036919
-0.13497221 -0.53080045 -0.02112036
-0.03583761 -0.48630826 0.001092
0.10083 -0.51771171 -0.02197517
0.01246126 -0.51225442 -0.036919
0.01266432 -0.43371438 -0.036919
-0.07031883 0.32076974 0.0018998
-0.03389895 0.06274599 -0.00536309
-0.00787976 0.11917561 -0.00389144
-0.036871 -0.15657040 -0.000548
-0.03477111 -0.02234112 -0.0075821
-0.12097025 -0.51766253 -0.036919
0.00853127 -0.32781148 -0.00965963
0.09949362 -0.48730879 -0.0184129
-0.05696963 -0.31995691 -0.002315
-0.00641425 0.26855524 -0.001956
-0.07554909 -0.45754565 -0.036919
0.01878694 -0.42338326 -0.002315
0.09095145 -0.55361887 -0.003032
-0.02887599 -0.45823480 -0.002315
0.01072219 0.27020416 -0.001956
-0.06729119 -0.55344194 -0.036919
0.07564477 -0.36491854 -0.02986275
-0.11862087 -0.45200160 -0.01390637
-0.00619527 -0.54553939 0.0010952
-0.09916554 -0.53724290 -0.002315
-0.00386487 -0.28919300 0.00212408
-0.00245229 -0.52810462 -0.036919
-0.01584296 -0.10742390 0.001451
-0.01081042 -0.60413098 -0.0212343
0.0191128 -0.46036865 -0.002315
-0.00980419 0.07093758 -0.00514945
-0.1284924 -0.55396793 -0.01121612
-0.02222487 0.20269692 -0.00171326
-0.07108687 -0.31552431 -0.036919
0.07567828 -0.57801155 -0.03353959
-0.12309231 -0.47050859 -0.036919
0.06796241 -0.51971918 -0.036919
0.02304575 -0.54193939 -0.002315
0.09841484 -0.48104700 -0.00341146
0.001677 -0.15557145 -0.00509928
-0.036871 0.07382794 -0.00162613
0.00662275 -0.36458656 -0.036919
-0.02178631 -0.06937400 0.00211128
-0.04916602 -0.32325715 -0.002315
0.03172824 -0.49953049 -0.002315
0.04964545 -0.53972588 0.002885
-0.04032304 -0.39810021 -0.036919
0.01451759 -0.53610921 -0.036919
0.03012628 -0.49824842 -0.036919
-0.02844098 -0.37462692 -0.036919
0.0583357 -0.42848584 -0.036919
-0.08678443 -0.39721976 -0.036919
-0.13566101 -0.50376661 -0.01279358
-0.02465878 -0.60413098 -0.01154638
-0.05741637 -0.50216689 -0.002315
0.10028599 -0.49401126 -0.00634085
0.06763443 -0.31156671 -0.02927161
-0.03274817 -0.37863515 -0.036919
-0.01759045 -0.09570066 0.001451
-0.08850936 -0.46567647 -0.002315
0.09566073 -0.52267229 -0.00231865
-0.036871 -0.28395641 -0.01849446
-0.03812587 0.26036731 -0.001956
-0.03531394 -0.31402138 -0.00075589
-0.08584368 -0.43519960 -0.036919
-0.00830778 -0.00627772 0.001451
-0.00256492 -0.47237620 -0.001598
-0.10688659 -0.58327185 -0.03456928
-0.036871 -0.30019329 -0.02771742
3.541e-05 0.02280427 0.001451
-0.10841277 -0.36681556 -0.03592984
-0.10570723 -0.48183630 -0.036919
0.08435806 -0.46367947 -0.002315
-0.0147161 0.02280851 -0.00640463
-0.11413518 -0.44656266 -0.036919
-0.03063497 0.22064282 0.001451
0.08822755 -0.49895076 -0.036919
0.04710786 -0.55706602 -0.002315
-0.07255953 -0.60146449 -0.01362079
-0.05054199 0.31502911 -0.00127769
0.0782753 -0.35971888 -0.01233583
0.05352706 -0.52276963 -0.036919
-0.0366962 -0.31397733 -0.0007663
-0.00113009 -0.30578679 -0.003032
-0.01491627 -0.17016053 -0.01143714
0.03521284 -0.38501513 -0.002315
-0.05906137 -0.40198701 -0.036919
0.00737936 -0.46560799 -0.002315
-0.00717454 0.02969877 -0.00622494
-0.01706924 -0.30439499 -0.03066685
-0.01156337 -0.39299766 -0.036919
-0.09922237 -0.38252211 -0.02571778
-0.00384169 -0.35648509 -0.002315
-0.09839831 -0.43259072 -0.036919
-0.13000456 -0.49842805 -0.036919
0.0380493 -0.46136357 -0.002315
-0.04707885 -0.49447883 -0.036919
-0.05609225 -0.45469720 -0.036919
0.00023472 -0.33173480 -0.002315
-0.01486198 -0.14329478 -0.0107365
-0.01654158 0.07171864 0.001451
-0.1103386 -0.58024438 -0.02888291
-0.02643836 -0.32724642 -0.036919
-0.02407244 -0.00571569 0.001451
0.001677 0.16303931 -0.00026664
-0.03708601 0.32035221 -0.001956
0.0545898 -0.59385504 -0.03038822
-0.08869534 -0.44553799 -0.036919
-0.0033129 -0.53165552 -0.002315
-0.03873133 0.30345614 -0.001956
-0.08496534 -0.30439499 -0.01893161
0.08939809 -0.55990608 -0.00626177
-0.02766947 0.15274774 -0.0030159
-0.01622469 -0.21861221 0.001451
-0.01220198 0.20679501 -0.00160638
-0.05873939 0.35300235 -0.001956
0.00047677 -0.53802001 0.00024942
-0.13336945 -0.48389930 -0.03096361
-0.1285345 -0.55388256 -0.02396149
-0.00385812 0.34429132 0.001451
-0.07714033 -0.48073770 -0.002315
-0.06951639 -0.30439499 -0.01216033
-0.06022087 -0.45305504 -0.002315
-0.09478725 -0.46576689 -0.036919
-0.01351436 -0.60216800 -0.036919
-0.07117384 -0.59104771 -0.002315
-0.01729774 -0.28309259 0.002168
-0.02208728 -0.25286559 -0.01359403
-0.01569777 -0.33623259 -0.002315
0.04067746 -0.46415135 -0.002315
-0.01520171 0.17470891 0.001451
0.03569494 -0.33784389 -0.02995737
0.03525001 -0.41411336 -0.002315
-0.00305232 -0.41471808 -0.036919
-0.00925723 0.36045628 -0.001956
-0.02627465 0.06394019 -0.00533194
-0.04829057 -0.53609353 -0.002315
-0.10760427 -0.34082339 -0.002315
0.09769686 -0.50715605 -0.036919
0.05931704 -0.33040618 -0.002315
0.01204054 -0.57450098 -0.036919
-0.03417615 -0.31729341 -0.002315
0.06121806 -0.30807608 -0.0129876
-0.01796033 -0.12472712 0.001451
0.02828888 -0.34091349 -0.003032
-0.03853756 0.28986942 0.001451
0.01664141 -0.57163933 -0.002315
-0.01079494 -0.29883639 0.001451
0.06578646 -0.37942196 -0.01950949
0.09503251 -0.54852494 -0.03345714
-0.02151819 -0.47585175 -0.036919
-0.04065838 0.29598108 -0.001956
0.08658821 -0.49914800 -0.002315
-0.00523948 -0.45934650 -0.036919
-0.05522904 -0.53769841 -0.002315
-0.13282287 -0.48418288 -0.003032
0.02267691 -0.59821298 -0.00234995
0.00592649 0.26230537 0.001451
0.03670358 -0.51389872 -0.002315
-0.00893695 -0.53852319 0.00541709
-0.036871 0.17750312 0.00096043
0.0335171 -0.33176800 -0.0047438
-0.08163707 -0.47579948 -0.036919
0.06194362 -0.57313227 -0.002315
0.10083 -0.50997839 -0.00801519
0.033318 -0.50764444 -0.002315
-0.03656267 -0.19809726 -0.01216571
-0.02254353 -0.27980196 -0.02233144
-0.11300451 -0.57354006 -0.00289816
0.04740507 -0.38063557 -0.036919
-0.00169468 -0.16787698 0.001451
0.03168948 -0.53720293 -0.002315
-0.01896765 0.28578866 0.001451
-0.10191165 -0.56628463 -0.036919
-0.10333696 -0.48425828 -0.036919
0.06214536 -0.36032044 -0.036919
0.05985416 -0.42765721 -0.002315
0.10083 -0.51037435 -0.01673447
0.03311691 -0.32831002 -0.03385394
0.04291027 -0.35661182 -0.002315
0.0803957 -0.46619151 -0.002315
-0.00234939 -0.54550231 0.00051301
-0.036871 -0.10424504 -0.0090988
-0.07847588 -0.53932717 -0.002315
0.03979982 -0.55065420 -0.002315
-0.05020764 -0.37333182 -0.036919
-0.1278233 -0.54415726 -0.00262307
-0.02149569 -0.01301850 0.001451
-0.03489892 -0.04109493 0.001451
-0.00398428 -0.28384472 -0.02472944
-0.01678322 -0.01099329 0.001451
0.08853672 -0.45172074 -0.01499784
-0.036871 -0.19792057 -0.00519444
0.01225855 -0.34214781 -0.036919
0.08296204 -0.45978619 -0.002315
-0.02656533 -0.34860761 -0.002315
-0.00721681 -0.57536127 -0.002315
0.10056392 -0.49713602 -0.03220396
-0.07005103 -0.39030808 -0.002315
-0.03189477 -0.04616456 0.001451
-0.03374577 -0.05073111 0.001451
0.00900331 -0.40952858 -0.002315
-0.0401761 -0.50510504 -0.002315
-0.00802464 -0.18713830 0.001451
0.04076964 -0.42247662 -0.002315
0.01178196 -0.41578897 -0.002315
-0.02009379 -0.32699860 -0.036919
-0.00954234 -0.29786098 -0.0330433
0.09181954 -0.45910210 -0.01976423
-0.08359666 -0.59785264 -0.03101974
-0.0056939 -0.51188877 -0.036919
-0.11116824 -0.36256582 -0.03413206
-0.0108718 0.30680871 -0.001956
0.00062379 -0.49943488 -0.036919
-0.0061602 0.25636547 -0.001956
-0.01927268 -0.54483300 0.00240551
0.02969394 -0.56424453 -0.036919
-0.06064468 -0.55042368 -0.036919
-0.02703174 -0.19002961 0.001451
-0.13566101 -0.51817311 -0.02070043
-0.036871 0.11137194 0.00096698
-0.00786214 -0.32984854 -0.036919
0.03887882 -0.59768877 -0.036919
-0.01581641 0.02485747 -0.00635119
0.001677 0.13752015 -0.00302489
-0.01181871 -0.31321959 0.001451
0.01018564 0.36361734 0.001451
0.07706612 -0.57646871 -0.02524739
0.05763125 -0.31847491 -0.002315
0.05606837 -0.48995572 -0.036919
-0.0089409 -0.50845992 -0.036919
-0.12348746 -0.54387996 -0.036919
0.07677253 -0.54673262 -0.002315
-0.07853009 -0.48849767 -0.036919
-0.11563804 -0.45669413 -0.036919
0.07449367 -0.47102497 -0.036919
-0.01692797 -0.09455508 -0.0094654
-0.12363149 -0.53256385 -0.036919
0.04256042 -0.51032611 -0.002315
-0.00292992 0.29646642 0.001451
0.03392053 -0.34004758 -0.02809862
-0.01780206 0.22538312 -0.00112161
-0.098397 -0.45186289 -0.036919
-0.00681059 0.35352941 -0.001956
-0.02953642 -0.32210307 0.001451
-0.00365515 -0.32524678 -0.036919
-0.12413954 -0.46045275 -0.00949502
-0.10199976 -0.31021269 -0.02416099
-0.02093046 -0.51283021 -0.002315
0.0395826 -0.52734957 -0.036919
-0.02683477 0.19400500 0.00188369
0.02696488 -0.50540860 -0.036919
0.06194801 -0.32089600 -0.036919
-0.0142061 -0.14289260 0.001451
-0.00822053 -0.12220381 -0.01018646
-0.04789915 0.34559400 -0.001956
0.02537477 -0.34017271 -0.003032
0.05966927 -0.45166999 -0.036919
-0.036871 -0.21147521 -0.01041021
-0.06990948 -0.46605831 -0.002315
-0.0216343 0.25011773 -0.001956
0.00801994 -0.41760879 -0.001598
-0.0338774 -0.56690112 -0.002315
-0.036871 -0.30789906 0.00058359
-0.08956856 -0.40027935 -0.002315
-0.02064205 -0.53684072 -0.036919
-0.06309613 -0.49639756 -0.002315
-0.02882457 -0.39114205 -0.002315
0.09572517 -0.49622621 -0.00238246
-0.04602042 -0.60063763 -0.036919
-0.05404388 -0.60398503 -0.02634703
0.04482916 -0.36080463 -0.002315
-0.02402386 -0.15107379 0.001451
0.04193959 -0.41190017 -0.036919
-0.00444705 0.34187749 -0.001956
-0.02938464 0.26880696 0.001451
-0.00245909 -0.35014835 -0.036919
-0.09103686 -0.33889876 -0.002315
-0.09794431 -0.33578439 -0.036919
0.04890722 -0.56086659 -0.036919
-0.13160509 -0.52088654 -0.036919
0.00652094 0.29146935 0.001451
-0.01812951 -0.36062593 -0.002315
0.06148621 -0.40116960 -0.01416964
0.00329729 -0.49912950 -0.002315
-0.02699827 -0.12556481 0.001451
-0.06087185 -0.53239367 -0.002315
0.05176546 -0.57497424 -0.036919
0.03784823 -0.35330950 -0.036919
0.001677 -0.05775734 0.00095464
-0.04835967 0.36229286 -0.001956
-0.01058916 -0.55758003 -0.002315
-0.06022275 -0.53713279 -0.036919
0.001677 0.03100135 0.00039035
0.06276178 -0.49548725 -0.036919
-0.02904212 0.29663472 -0.001956
-0.01847437 0.04389135 0.002168
-0.01316804 0.11847595 0.001451
-0.01495641 -0.46253477 -0.036919
-0.01118623 -0.56452044 -0.002315
-0.0305499 -0.20646416 -0.01238391
0.00018632 0.08282449 -0.00483945
-0.01814294 -0.15796080 0.001451
-0.04630276 0.32264517 -0.001956
-0.11815389 -0.46979937 -0.036919
0.07235852 -0.50696443 -0.036919
-0.02381665 0.25929830 -0.001956
-0.03005109 0.34457197 -0.001956
-0.13296997 -0.54115285 -0.0276217
-0.0364085 0.08755950 -0.00471597
-0.01449782 -0.17079378 0.001451
-0.02141857 0.12824441 0.002168
0.04936266 -0.53325120 -0.036919
0.07206929 -0.36878778 -0.036919
-0.11770165 -0.50631692 -0.036919
-0.08089489 -0.31819305 -0.002315
-0.01209453 -0.51941459 0.00163
-0.01949484 0.01026904 0.002168
-0.01165531 -0.51968891 0.00163
-0.02609116 -0.48411499 -0.036919
0.06669901 -0.42648323 -0.036919
-0.11604659 -0.57393725 -0.01623852
-0.00136428 -0.45018639 -0.002315
-0.04456644 -0.44503581 -0.002315
0.07096457 -0.42495786 -0.0235073
0.03685945 -0.45234813 -0.002315
-0.00147645 -0.54483300 -0.00217536
-0.05323615 -0.44199539 -0.002315
-0.09668771 -0.39026915 -0.02650545
-0.0191947 -0.23832088 0.002168
0.02314995 -0.60168822 -0.036919
-0.06509778 -0.51485928 -0.002315
-0.11974758 -0.51965229 -0.002315
-0.07486785 -0.38131735 -0.002315
-0.00477663 -0.49799863 -0.002315
-0.12271853 -0.51275656 -0.002315
-0.00673015 0.04635326 -0.0057906
-0.03282981 -0.06749911 -0.00875979
-0.02489207 0.27736313 -0.001956
-0.10361784 -0.54404983 -0.002315
-0.07784293 -0.55981421 -0.036919
0.02316295 0.32642726 0.00430508
-0.03486913 -0.30550923 -0.003032
-0.10647087 -0.36962661 -0.01110032
-0.0347337 -0.10366583 -0.009703
-0.00638903 -0.17844636 0.001451
-0.03015678 0.32533152 0.00153989
-0.03108615 -0.30439499 -0.00821405
-0.06379274 -0.30439499 -0.00629455
-0.09073132 -0.54048551 -0.036919
-0.03896809 0.30139396 -0.001956
-0.05187876 -0.48888999 -0.002315
-0.0236907 -0.59805753 -0.0023248
-0.08042213 -0.59893018 -0.00792028
-0.00406867 0.27114169 0.001451
-0.04104455 -0.47495869 -0.036919
0.01048448 -0.49269572 -0.036919
0.0062219 -0.35471853 -0.002315
-0.04001865 -0.34712334 -0.036919
0.0714095 -0.46190598 -0.036919
-0.02893532 -0.20226671 0.001451
0.09604106 -0.47126442 -0.01648225
0.08690112 -0.56411604 -0.0315201
0.00761412 0.28903791 0.00083537
-0.08603416 -0.46544084 -0.036919
-0.01690859 -0.43435308 -0.036919
-0.01115968 0.02151418 0.001451
-0.02043841 -0.01055838 -0.00727482
0.001677 -0.28221006 -0.01959232
0.07101832 -0.31521740 -0.02661732
0.05450344 -0.42529311 -0.002315
-0.00454328 -0.09458582 -0.0094662
-0.13293485 -0.50565336 -0.036919
0.09079547 -0.54606893 -0.036919
0.00557149 0.27445081 -0.001956
0.06470928 -0.38187631 -0.0160091
0.06585374 -0.33321538 -0.036919
-0.02117813 0.14122376 0.001451
-0.09278711 -0.53258970 -0.002315
-0.01106516 0.32413590 -0.001956
-0.05423111 -0.56080776 -0.002315
-0.02021665 -0.58041024 -0.002315
0.06137897 -0.39934455 -0.00338236
-0.0058295 -0.27747385 0.001451
0.04923345 -0.39250425 -0.036919
-0.00560032 -0.53013598 -0.036919
-0.04061128 0.33775564 -0.001956
-0.00746199 -0.57069158 -0.036919
0.02489036 0.28346802 0.00025593
-0.03677087 -0.45627752 -0.002315
0.08720344 -0.49373562 -0.002315
0.03121925 -0.59371806 -0.036919
0.00075897 0.31996444 0.001451
-0.07636501 -0.41654994 -0.002315
5.31e-05 -0.41861425 -0.036919
-0.06949293 -0.31460093 -0.002315
-0.02652215 0.06687399 -0.00525543
-0.04112678 -0.53833315 0.005216
0.0490472 -0.41044115 -0.036919
-0.05750452 -0.56014907 -0.002315
-0.00572571 -0.05080850 0.001451
-0.10650915 -0.36891580 -0.036919
-0.0276225 -0.32241307 0.00122829
-0.02297781 -0.43052609 -0.001598
-0.08222569 -0.36567169 -0.036919
-0.01962645 0.05514857 0.001451
0.04108506 -0.45770349 -0.036919
-0.0251415 0.35915455 -0.001956
0.04798978 -0.58286317 -0.002315
-0.036871 -0.20381958 -0.01001018
0.09531998 -0.49735643 -0.036919
-0.00796569 -0.37508508 -0.002315
-0.0123263 0.08219543 0.001451
0.07751092 -0.51361574 -0.036919
-0.02776284 -0.28646564 -0.02628406
0.09903349 -0.53653866 -0.01053936
0.08148448 -0.34635147 -0.01669583
-0.06923901 -0.46933113 -0.002315
-0.11137282 -0.49130344 -0.036919
-0.02342234 0.33449830 0.001451
-0.08799629 -0.31313246 -0.002315
-0.03799151 -0.51849763 0.00163
-0.04489199 0.29313796 0.001451
-0.00361832 -0.25641499 0.001451
0.02495799 -0.35735685 -0.036919
0.01915603 -0.57180129 -0.002315
0.04356362 -0.30969188 -0.02256753
-0.0148531 -0.29789963 0.001451
-0.01902315 -0.00233666 0.001451
0.07360697 -0.48131400 -0.036919
-0.11851 -0.45185686 -0.03321403
0.04099545 -0.50092645 -0.002315
-0.0265484 -0.59337207 -0.002315
-0.09573908 -0.41258444 -0.01821139
-0.03344663 -0.45843223 -0.002315
-0.01723109 -0.16665658 -0.01134576
-0.02062612 0.20814465 0.002168
-0.03173788 0.27202773 0.003781
0.04812513 -0.31028649 -0.036919
-0.05186699 -0.30439499 -0.01386611
-0.01055262 -0.58058887 -0.036919
-0.0085419 -0.08509228 -0.00921861
0.09088264 -0.55731766 -0.02686155
-0.02383232 0.14147557 -0.00330987
0.05121157 -0.56862533 -0.002315
-0.00429569 -0.32851147 -0.036919
0.0904352 -0.55804053 -0.036919
-0.10179647 -0.31004160 -0.02097653
0.04479644 -0.40712375 -0.036919
0.06639242 -0.41816326 -0.01183021
-0.05096003 0.27142422 0.001451
0.03722947 -0.34955818 -0.002315
0.00872537 -0.32803948 -0.01250202
-0.09907097 -0.46352091 -0.036919
-0.13352983 -0.53833891 -0.02852583
-0.12778752 -0.48933273 -0.002315
-0.10646217 -0.36963896 -0.00729833
-0.03563199 -0.49382427 -0.001598
-0.08764232 -0.56290047 -0.036919
-0.00281751 -0.27637234 -0.02029713
-0.02239767 -0.20968722 -0.01246797
-0.07225729 -0.33361879 -0.002315
-0.04275169 -0.54483300 0.00093612
-0.00827155 -0.30621069 -0.00260269
0.07724091 -0.34842853 -0.00239486
-0.131448 -0.48537350 -0.036919
0.00203363 -0.51919763 -0.036919
0.05224198 -0.56535836 -0.036919
-0.03099616 0.24478248 -0.00061569
-0.05538429 -0.51164884 -0.002315
-0.00332189 -0.44249114 -0.002315
-0.1005837 -0.58529296 -0.036919
-0.0605861 -0.45871192 -0.002315
0.04281527 -0.54252516 -0.036919
-0.03109512 -0.60413098 -0.01641614
0.09132314 -0.55654961 -0.01079429
-0.07639054 -0.35289285 -0.002315
-0.1029372 -0.37492318 -0.01309345
-0.01919161 -0.19978101 0.001451
0.05930262 -0.56222938 -0.036919
0.0211171 -0.42792444 -0.002315
0.00084328 -0.30439499 -0.00413526
-0.13438138 -0.49298004 -0.003032
0.03058477 -0.43779580 -0.002315
0.00396614 -0.52402194 -0.036919
-0.00152452 -0.57547079 -0.002315
0.1000019 -0.50239175 -0.036919
-0.01517825 0.18487581 -0.00217802
-0.08328491 -0.48983078 -0.002315
-0.02036645 -0.19572567 0.001451
0.001677 -0.29322905 -0.02204628
-0.06664195 -0.37584280 -0.036919
-0.03649692 -0.30439499 -0.03143388
-0.00083176 -0.56111769 -0.002315
-0.09482509 -0.43709378 -0.002315
0.02242026 -0.56441898 -0.036919
-0.00034773 -0.30439499 -0.0031039
0.00087905 -0.30439499 -0.03337145
-0.03115996 -0.30946949 -0.00248632
-0.0104653 -0.05635092 -0.00846906
-0.01043737 -0.16590263 0.001451
-0.01274152 -0.01151814 -0.00729985
-0.00582241 0.25700835 0.001451
0.07144646 -0.57745069 -0.00277835
-0.05893861 -0.60366435 -0.02658708
0.001677 0.08193326 5.473e-05
-0.05980341 -0.43997767 -0.002315
-0.01915453 -0.13385375 -0.01049028
0.06020529 -0.55838304 -0.036919
-0.11567951 -0.33383281 -0.02559095
-0.01385894 0.11623629 0.001451
0.01390618 -0.60413098 -0.02270033
-0.00618496 -0.17804051 0.001451
-0.03639194 -0.06107517 -0.00859226
-0.00952221 -0.54886335 -0.002315
-0.00794585 -0.28236777 0.001451
0.00404347 -0.37294040 -0.036919
-0.07720744 -0.44103984 -0.036919
-0.05821479 0.34832040 -0.001956
0.06565443 -0.31030872 -0.02252707
-0.08020269 -0.32083845 -0.036919
-0.05424667 0.29934090 0.00149583
-0.0087876 0.31621269 -0.001956
-0.05747835 0.30095830 0.00041569
-0.036871 0.10216846 -0.00270072
-0.01535709 0.20510903 -0.00165035
0.01466047 -0.46270121 -0.002315
0.02944711 -0.55296910 -0.002315
-0.12140329 -0.54060713 -0.002315
0.06289129 -0.40942266 -0.02587838
0.01415121 -0.46857873 -0.002315
0.02605893 -0.33910650 -0.01389275
-0.02774012 0.28318094 -0.001956
-0.03289442 0.30456818 0.00303896
-0.03280349 0.16070719 -0.00280832
-0.07446666 -0.36405173 -0.002315
0.07687672 -0.57667927 -0.0275737
-0.05990313 -0.30439499 -0.01438596
-0.00648514 -0.43374100 -0.036919
-0.08423708 -0.58812948 -0.002315
-0.05860789 -0.35447991 -0.002315
-0.06684261 -0.59820313 -0.036919
-0.0050066 0.01346688 0.002168
-0.036871 -0.12966631 -0.00775333
-0.0230364 0.00290726 0.002168
-0.0496915 0.31458962 0.001451
-0.02382414 0.26838610 -0.001956
0.02227276 -0.47973294 -0.036919
0.00688894 -0.53361513 -0.036919
0.08439171 -0.44386724 -0.02822605
-0.09377129 -0.30445441 -0.0339754
-0.008441 -0.17070611 0.001451
0.04894696 -0.48051788 -0.002315
0.01955488 0.32330085 -0.00231926
-0.05597021 0.34541144 0.001451
-0.08216391 -0.45605684 -0.002315
0.07057643 -0.32607748 -0.036919
-0.02547655 -0.11813013 -0.01008022
-0.02610983 -0.47611334 -0.036919
-0.06711904 0.30032335 0.00268047
0.001677 -0.30079829 -0.02234965
-0.04659318 -0.54322198 -0.036919
0.02104302 -0.58850680 -0.002315
-0.02374434 -0.05401365 0.001451
0.03129351 -0.39425064 -0.002315
0.07769865 -0.49087396 -0.002315
0.03340193 -0.45425454 -0.002315
0.09759844 -0.47715127 -0.02401362
0.0746753 -0.57901078 -0.01926933
-0.13289435 -0.54153292 -0.00397796
0.07421556 -0.53723000 -0.002315
0.001677 -0.24722632 -0.00817747
-0.05222516 -0.58806406 -0.036919
-0.03501681 -0.37366300 -0.002315
-0.00942655 -0.54483300 0.00045341
-0.01775953 -0.33820598 -0.036919
-0.09132524 -0.57669053 -0.036919
0.04486662 -0.39098892 -0.002315
-0.02673239 -0.14577533 -0.01080119
0.03369287 -0.33255551 -0.03048876
-0.10217066 -0.47237485 -0.036919
0.00667235 -0.40281938 -0.001598
-0.10204804 -0.58734617 -0.01451733
-0.08841415 -0.37800958 -0.036919
0.05311779 -0.46959909 -0.036919
-0.10658883 -0.36945928 -0.00956847
-0.036871 -0.00109298 -0.00110067
-0.03559478 -0.20799075 0.001451
0.05938214 -0.54231243 -0.002315
-0.02423819 -0.16897296 0.001451
-0.03774267 0.25001931 -7.267e-05
-0.03908432 -0.42132205 -0.001598
-0.032172 0.04962059 0.0018804
-0.02158104 -0.20517931 -0.01235041
-0.02099104 0.05830609 -0.00547888
-0.13555025 -0.50026926 -0.02695739
-0.08923855 -0.35232479 -0.036919
0.10083 -0.51331120 -0.02692818
0.00061515 -0.29340882 -0.03040246
-0.01161921 -0.27710403 -0.02073115
0.03514361 -0.60180647 -0.02022706
-0.06262132 -0.33998908 -0.036919
0.01907609 0.32402839 0.00040131
-0.02579418 0.15235641 0.001451
0.05002932 -0.47222967 -0.002315
0.10083 -0.50511353 -0.02437729
-0.10041974 -0.33172716 -0.036919
-0.08304994 -0.56975512 -0.002315
-0.06998597 -0.46766285 -0.036919
-0.02390224 -0.58339378 -0.036919
0.05360133 -0.38938366 -0.002315
-0.04006228 0.32006144 0.00334057
0.00868926 0.34520521 0.001451
-0.0641636 -0.34069641 -0.002315
-0.02830978 -0.33520028 -0.002315
-0.03221272 -0.30439499 -0.0268215
-0.07728733 -0.56651619 -0.002315
0.04442326 -0.59868667 -0.036854
-0.04648068 0.34438130 -0.001956
-0.07241786 -0.49802619 -0.002315
-0.08007277 -0.37476804 -0.002315
-0.00772511 -0.54483300 -0.00072702
-0.0075195 -0.58007761 -0.036919
-0.11961814 -0.53314275 -0.036919
-0.036871 -0.04782222 -0.00494102
-0.04789962 -0.42745714 -0.036919
-0.09604532 -0.39333048 -0.01909519
0.00453417 -0.53347103 -0.002315
-0.09689017 -0.41823325 -0.00371708
-0.08311538 -0.39905121 -0.002315
-0.07199508 -0.54288575 -0.036919
-0.05580878 -0.42493202 -0.002315
-0.1304305 -0.54898024 -0.02021243
-0.01613343 0.05088141 0.002168
0.08051706 -0.35304366 -0.03441534
0.0737733 -0.50462764 -0.002315
-0.00955173 -0.03248266 -0.00784659
0.02374069 -0.60413098 -0.01526244
-0.0059179 0.30121845 0.001451
0.05042018 -0.34940177 -0.002315
-0.10668828 -0.33037021 -0.002315
-0.06212054 -0.31362886 -0.036919
-0.11623274 -0.34647613 -0.03431159
0.03252568 -0.57957130 -0.036919
0.00176814 -0.50139697 -0.036919
-0.0840359 -0.51744182 -0.002315
-0.00064709 -0.24048960 0.001451
-0.01515024 -0.05492072 0.002168
-0.00321088 0.18812112 -0.00209338
-0.00585711 -0.25552633 0.001451
-0.0275829 -0.16573968 0.001451
-0.01470203 -0.48109934 -0.036919
0.0204577 -0.37708832 -0.002315
-0.07489265 -0.40772512 -0.002315
-0.0301553 -0.60413098 -0.02882341
0.07674096 -0.36305618 -0.02186606
0.03419061 -0.32132164 -0.01759717
-0.10626245 -0.32526319 -0.036919
-0.01793615 0.01256104 0.002168
-0.06361655 -0.33080326 -0.036919
-0.13566101 -0.50679536 -0.01517864
-0.02783055 -0.56869060 -0.002315
0.09063569 -0.54620261 -0.036919
-0.00813839 -0.55057875 -0.002315
0.01354231 -0.33288159 -0.00310516
-0.03161715 -0.51306484 -0.036919
-0.13193554 -0.47850680 -0.0355274
-0.00883264 -0.26530103 -0.01391834
-0.02991761 -0.37702352 -0.036919
-0.01763489 -0.06797773 -0.00877228
-0.06083986 -0.50793160 -0.036919
-0.00320558 0.06098659 -0.00540897
-0.09322617 -0.33700093 -0.002315
0.05886816 -0.55440007 -0.002315
0.07795338 -0.32611837 -0.01065195
-0.04458097 -0.36437102 -0.002315
-0.00174012 -0.01232507 -0.00732089
-0.06074666 -0.32186965 -0.036919
-0.09524508 -0.40825127 -0.01167357
-0.01898875 -0.45059949 -0.002315
0.07719965 -0.32440123 -0.03194957
0.05320515 -0.35301673 -0.002315
0.01789277 -0.53242830 -0.036919
-0.0394403 -0.55103930 -0.002315
-0.07742154 -0.59624355 -0.036919
-0.03302066 0.31576844 0.001451
-0.01041499 0.08470040 0.001451
-0.06024234 -0.52327436 -0.002315
-0.06594924 -0.43983807 -0.002315
-0.036871 -0.15646024 -0.00557467
-0.04751691 -0.32309067 -0.036919
-0.03471132 -0.35290872 -0.036919
-0.11784462 -0.51945815 -0.036919
0.08937201 -0.55995155 -0.0315707
0.08742748 -0.46745897 -0.036919
-0.00095274 -0.12859431 0.001451
-0.02845339 0.33063660 -0.001956
-0.0299751 -0.15873303 -0.01113912
-0.06248403 -0.37424377 -0.002315
-0.03805958 -0.38102247 -0.002315
0.03527238 -0.42405301 -0.002315
-0.12134723 -0.47099564 -0.002315
-0.01553798 -0.03098914 0.001451
-0.04566376 0.35841508 0.001451
0.00152875 0.14290119 0.001451
0.06630314 -0.47368415 0.00137548
-0.0018435 -0.31980521 0.001451
0.06563705 -0.41671745 -0.02920747
-0.04725964 -0.34733359 -0.002315
0.00052095 -0.18417331 -0.01180258
0.09205898 -0.55526660 -0.02868829
-0.00794915 -0.28278435 -0.02410047
0.07652134 -0.53286462 -0.002315
-0.04890818 -0.42228071 -0.036919
-0.0607464 -0.36746901 -0.002315
-8.909e-05 -0.42525125 -0.036919
0.04403961 -0.32233055 -0.036919
-0.07431106 -0.55175176 -0.002315
0.00776053 -0.54529814 0.00368872
0.02624326 -0.57921809 -0.036919
0.01566251 -0.38083326 -0.002315
0.04539982 -0.34347220 -0.036919
0.00835759 -0.56115199 -0.036919
-0.00905048 -0.56910274 -0.002315
0.05711821 -0.55274500 -0.002315
-0.02417186 0.13143871 -0.00357162
-0.02581215 -0.30439499 -0.03480331
-0.01434552 -0.43939941 -0.002315
-0.03429729 -0.42463777 0.00053607
-0.07281143 -0.41819436 -0.036919
-0.06130948 -0.34224312 -0.036919
0.07163691 -0.37063784 -0.0283505
-0.01882676 0.18142132 -0.00226811
-0.07498207 -0.44409948 -0.036919
-0.1054419 -0.43663234 -0.03655377
0.06542923 -0.50160197 -0.002315
-0.03153534 0.08869976 -0.00468623
0.02318067 -0.35018984 -0.002315
-0.10819415 -0.57395053 -0.00236805
-0.07883014 -0.35330308 -0.036919
-0.02653437 -0.01352734 -0.00735225
-0.00297851 -0.50431436 -0.002315
-0.01776006 -0.20821129 -0.01242948
-0.09543855 -0.56500271 -0.002315
-0.13108284 -0.54705822 -0.03599038
0.06674368 -0.51377515 -0.036919
-0.07049403 -0.55719589 -0.036919
-0.06914995 -0.43858114 -0.002315
-0.10491963 -0.44072202 -0.036919
0.02161376 0.28459711 0.00341489
-0.02714421 -0.28759375 0.002168
-0.09530028 -0.39802437 -0.0088655
-0.01963665 0.26015778 0.001451
-0.03579695 0.26430386 0.001451
-0.09588729 -0.53748945 -0.002315
-0.042988 -0.51634530 0.00064563
0.06355383 -0.38488252 -0.02181648
0.00898788 -0.43772379 -0.002315
-0.09746298 -0.38752467 -0.02949175
-0.03588574 0.18854644 0.001451
-0.00714566 0.04230616 0.002168
-0.06483083 -0.37520248 -0.002315
-0.08383025 -0.47142285 -0.036919
-0.00536285 -0.25845787 -0.01373988
-0.00224524 0.33015747 -0.001956
-0.02159976 0.33938596 0.001451
-0.10419645 -0.55410619 -0.002315
-0.08829612 -0.33716366 -0.002315
-0.02057289 0.17526381 -0.00242869
-0.03303712 0.02235037 -0.00641658
-0.13473419 -0.49098675 -0.03663528
-0.02757555 0.25014105 0.001451
-0.03953008 0.25739181 -0.00047683
0.01344988 -0.40164490 -0.002315
0.07994216 -0.49457624 -0.036919
-0.01316262 0.13897382 -0.00337511
0.07666648 -0.46694037 -0.036919
0.06893205 -0.33412313 -0.036919
-0.02248447 -0.15436351 0.001451
-0.02179967 -0.33212875 -0.036919
-0.02675764 0.05170446 0.001451
-0.01095907 0.28152533 0.001451
-0.1214283 -0.49268418 -0.036919
-0.07794464 -0.56973352 -0.002315
0.02875969 -0.37280254 -0.002315
-0.01195847 -0.53250513 -0.002315
0.001677 -0.27101229 -0.0169588
-0.01145684 -0.40393207 -0.036919
-0.03339413 -0.21065478 -0.0124932
-0.01885803 -0.40967199 -0.00086334
0.02557906 -0.51610412 -0.002315
-0.01665823 0.03737964 0.002168
-0.02773706 -0.29978130 0.001451
-0.0111059 -0.06267982 -0.00863411
-0.04329017 0.32636678 0.001451
-0.0180513 0.12211116 -0.00381488
-0.08661681 -0.48105499 -0.036919
-0.03501094 0.04914754 0.001451
-0.00610947 0.21419038 0.002168
-0.10899161 -0.55361801 -0.036919
0.09585047 -0.47056524 -0.01729961
-0.10496435 -0.31306485 -0.00599389
-0.02076365 -0.06205454 -0.0086178
0.01601523 0.30386083 -0.00273202
-0.00183137 -0.37599595 -0.002315
-0.10068838 -0.42865766 -0.00899341
0.10083 -0.51947825 -0.00572885
-0.0336769 -0.38532552 -0.036919
-0.03643957 -0.05574813 -0.00845334
-0.04232226 -0.56210332 -0.036919
0.01838583 -0.39232098 -0.002315
0.001677 -0.30420062 -0.03095674
0.08732934 -0.47119015 -0.036919
-0.01076879 -0.52041540 -0.036919
0.00053594 0.05153228 0.001451
-0.036871 -0.28165501 -0.02248681
-0.02403467 -0.33897949 -0.002315
-0.036871 -0.20105339 -0.00515236
-0.01538084 -0.10672245 -0.00978271
0.06327306 -0.30879572 -0.02170989
-0.00891184 -0.51496398 0.00022913
-0.01040059 -0.40177216 -0.002315
0.0141063 -0.59384226 -0.002315
-0.11625682 -0.34632378 -0.0295423
0.00200908 -0.54213250 -0.036919
-0.01987952 0.23284326 0.001451
-0.1095806 -0.48702917 -0.002315
-0.11587542 -0.34873706 -0.00982937
-0.03683203 -0.03041839 0.001451
-0.00196202 -0.52177799 -0.00138866
-0.03219307 -0.30439499 -0.03503959
-0.02247816 -0.48341352 -0.036919
-0.02455162 0.10692427 0.001451
0.03801275 -0.54648434 -0.002315
-0.03647365 -0.08811824 0.001451
-0.03547514 -0.30884096 0.001451
0.05223406 -0.54926438 -0.036919
-0.0300573 0.10666619 -0.00421768
-0.09343686 -0.49873334 -0.036919
-0.01583296 0.05962372 0.001451
0.00370829 0.34311029 0.001451
0.01719113 -0.44612802 -0.002315
0.01306631 -0.60413098 -0.03641926
-0.05555059 -0.59971596 -0.036919
-0.11219362 -0.49110672 -0.002315
-0.04402331 -0.32115331 -0.002315
-0.01159852 -0.47583199 0.00036115
0.0471344 -0.44086123 -0.002315
-0.01332022 -0.11360977 0.001451
0.07964871 -0.43944417 -0.00303105
-0.01823751 -0.54435159 -0.036919
0.00149616 0.29809283 -0.001956
0.04700207 -0.39463613 -0.036919
-0.0606409 -0.40535455 -0.002315
-0.00141166 -0.31514700 0.001451
-0.036871 0.06904330 -0.0036742
-0.05333196 -0.30439499 -0.00798942
-0.02575017 0.09107898 0.001451
-0.03380886 0.18817138 0.001451
0.00034773 -0.06395035 0.001451
0.00152347 -0.38935223 -0.036919
-0.02725759 -0.55587429 -0.002315
-0.00284104 -0.14351880 -0.01074234
0.09957228 -0.53392027 -0.03173128
-0.07726421 -0.60000209 -0.01370323
-0.10406292 -0.32338076 -0.002315
0.07962611 -0.35603934 -0.01401724
-0.00020139 0.24988391 0.001451
0.02866112 -0.39741928 -0.002315
0.01220266 -0.48657577 -0.036919
-0.02394669 -0.35683645 -0.002315
-0.00154092 -0.60399431 -0.036919
-0.02499088 0.28925889 -0.001956
0.07291707 -0.42741080 -0.0301885
-0.02803224 0.23198944 0.001451
-0.03484144 0.29997316 -0.001956
-0.00521754 -0.40713122 -0.036919
-0.06525654 -0.38751237 -0.002315
0.03428683 -0.39933752 -0.002315
-0.06278508 -0.57808635 -0.002315
0.05495487 -0.56345813 -0.002315
-0.07205616 -0.52375770 -0.036919
-0.0709694 -0.39521571 -0.036919
-0.02361456 -0.16444703 -0.01128813
0.06971531 -0.49644293 -0.002315
-0.01720636 -0.38225878 -0.002315
-0.13566101 -0.51632125 -0.00369738
-0.02578805 -0.48246899 0.001092
-0.01522593 -0.60413098 -0.02408079
-0.04294264 -0.60413098 -0.00936747
0.00426903 -0.33818515 -0.036919
-0.03679247 -0.31277022 0.001451
-0.12682339 -0.51667801 -0.002315
-0.02485413 -0.12214432 -0.01018491
-0.0095847 0.15502522 0.001451
-0.01143346 -0.31071632 -0.00153735
0.0008734 -0.03586979 0.001451
-0.036871 -0.22271316 -0.01085393
0.04149829 -0.59227953 -0.036919
-0.0028402 -0.30788345 0.001451
-0.03349573 -0.13950923 -0.01063777
0.06199614 -0.41421324 -0.036919
-0.06257952 -0.60342582 -0.01187042
0.001677 -0.05591835 -0.00108454
-0.04744288 -0.51328403 -0.002315
0.01510416 -0.52645421 -0.036919
-0.07746052 -0.34602206 -0.036919
-0.11245382 -0.32416597 -0.00584193
0.03649443 -0.39258185 -0.002315
0.06916266 -0.50860877 -0.036919
-0.02354443 0.05215245 -0.00563936
0.00101095 0.28745528 -0.001956
0.03337841 -0.37241290 -0.036919
0.06224768 -0.45844849 -0.002315
-0.036871 -0.22781544 -0.00085006
-0.05188885 -0.30439499 -0.01876574
-0.01384878 -0.08733561 0.001451
-0.00863072 -0.03888453 -0.00801354
-0.11389072 -0.45482594 -0.036919
-0.02004274 0.17313564 -0.00248419
-0.00663159 -0.60158070 -0.036919
0.00741394 -0.53802001 0.00166582
-0.08248796 -0.53614999 -0.002315
-0.10740302 -0.48731947 -0.002315
-0.036871 -0.29449383 -0.01430131
0.001677 -0.14817774 -0.00822915
-0.09952013 -0.58655679 -0.0029772
-0.01137917 0.27839508 0.00257065
0.02770282 -0.34926269 -0.036919
-0.02209761 -0.02816420 0.001451
-0.02340798 0.35494843 -0.001956
-0.06248495 0.29618426 -0.00129191
-0.01453612 -0.40802497 -0.036919
-0.00987073 -0.12967804 0.001451
0.00413419 -0.36319313 -0.036919
0.02779685 -0.57724388 -0.002315
-0.0130626 -0.46759302 -0.036919
0.01135835 0.35570399 0.001451
0.00513399 -0.32264869 -0.01391829
-0.02949449 -0.16472031 -0.01129526
0.08052276 -0.53623573 -0.036919
-0.1328313 -0.48170840 -0.02713069
-0.01944612 -0.56773974 -0.002315
-0.03555664 0.29247392 -0.001956
-0.00296766 -0.30439499 -0.00708662
-0.00105828 -0.38246786 -0.002315
-0.008332 -0.01132533 0.001451
-0.11274268 -0.57770441 -0.01512
-0.05240247 -0.60409256 -0.030229
-0.05592793 -0.37518470 -0.036919
0.08575957 -0.44635717 -0.0034194
-0.07637342 -0.46900133 -0.002315
-0.09592489 -0.39406501 -0.0332156
0.02544769 -0.60393752 -0.00560227
-0.02370153 -0.30439499 -0.03333227
-0.07155905 -0.31313747 -0.036919
-0.10593698 -0.51199397 -0.036919
0.00189668 -0.53500962 -0.002315
-0.07766736 -0.55702589 -0.002315
-0.02573269 -0.17173242 -0.01147813
0.03695827 -0.31574796 -0.01678796
0.04291523 -0.31003085 -0.03212913
0.08610796 -0.44699134 -0.0179399
-0.07898327 -0.46184859 -0.002315
0.00848669 -0.58486151 -0.036919
-0.036871 0.04360250 -0.00513758
-0.09369079 -0.58323106 -0.002315
-0.08462653 -0.44379996 -0.002315
-0.11824773 -0.57142750 -0.02104451
0.0014734 0.11695017 0.001451
-0.02559388 -0.02999440 0.001451
-0.06271641 -0.54470598 -0.036919
-0.0083867 0.15173488 0.001451
-0.01977097 -0.34719905 -0.036919
-0.02640589 -0.54806214 -0.036919
0.06102339 -0.52021328 -0.036919
0.05836894 -0.44420587 -0.002315
-0.00835697 0.18476590 -0.00218088
-0.01459067 -0.38306199 -0.036919
0.07134004 -0.33467984 -0.036919
0.001677 -0.14124879 0.0004061
-0.06267155 -0.30439499 -0.02323088
-0.11622111 -0.33775575 -0.02305325
-0.08869352 -0.46266877 -0.002315
0.03808696 -0.58118550 -0.002315
0.01488029 -0.36734435 -0.002315
-0.02199767 0.17080988 0.001451
-0.10464239 -0.31865581 -0.036919
-0.10546582 -0.47860380 -0.036919
-0.08879666 -0.34480358 -0.036919
-0.02770856 -0.41957567 0.001092
-0.00278842 -0.38144453 -0.036919
-0.03222129 0.18203446 -0.00225212
0.02746571 -0.43692518 -0.036919
-0.11124953 -0.54945938 -0.036919
-0.02845083 -0.26186225 0.002168
-0.03940176 -0.40842000 -0.036919
-0.03189429 -0.43765202 -0.036919
0.00017804 -0.56662043 -0.036919
-0.0161796 -0.51073624 -0.036919
-0.1185196 -0.47537374 -0.036919
0.03587662 -0.33848904 -0.00260204
0.03529765 -0.55855142 -0.002315
-0.00690241 -0.37131178 -0.002315
0.01954231 -0.59975984 -0.036919
-0.08689555 -0.34703398 -0.036919
-0.01646773 -0.10669777 0.001451
-0.01110497 -0.14523608 -0.01078713
-0.10350115 -0.34376367 -0.036919
0.06604924 -0.56478433 -0.002315
-0.11547992 -0.56209549 -0.002315
-0.05961715 -0.46731990 -0.036919
-0.0731785 -0.45144396 -0.002315
-0.02261738 -0.22686078 0.001451
-0.03382526 -0.29955810 0.001451
0.05647393 -0.30694074 -0.03014778
-0.09444671 -0.33741924 -0.002315
0.02360722 -0.58876347 -0.036919
