# .PCD v0.7 - Point Cloud Data file format
VERSION 0.7
FIELDS x y z
SIZE 4 4 4
TYPE F F F
COUNT 1 1 1
WIDTH 1392
HEIGHT 1
VIEWPOINT 0 0 0 1 0 0 0
POINTS 1392
DATA ascii
0.29836475 -0.00405248 0.0501018
-0.13433984 0.08803409 -0.10313896
0.17488358 -0.03270392 -0.01559535
-0.26789839 -0.03434876 -0.17911943
0.18517709 -0.05963434 0.02814681
-0.15339945 -0.06724243 0.32902735
0.10600543 0.06844451 -0.16297498
-0.2210673 -0.05426915 -0.08025269
0.1563506 0.09073090 -0.09223131
-0.15023649 -0.00273648 0.11964875
-0.1952116 -0.05821613 -0.25998969
0.11188847 -0.00826502 -0.1574763
-0.27711453 -0.02727374 -0.07790491
-0.08138122 0.07225822 0.13718864
0.26903445 -0.03424466 -0.17987538
-0.12931639 0.06884797 -0.13735346
0.06718225 -0.02234606 0.20541895
0.16412858 -0.06744471 0.3238623
-0.05915265 0.08574478 -0.19352369
-0.13380703 0.08661647 0.14573094
0.14599656 -0.06206400 0.21051942
0.01482901 0.07579731 0.15611351
-0.08624587 -0.05755346 -0.17985303
0.28930444 -0.01825148 -0.01290247
-0.1036476 0.07850682 0.0011572
-0.0146481 -0.06206400 -0.24094363
0.15987684 0.09314093 -0.08186143
0.20222549 -0.05728469 0.09429923
-0.22946346 -0.05245900 -0.28650342
0.10796768 -0.06206400 -0.18317665
0.02289363 0.07004636 0.21973035
-0.0117498 -0.07346851 0.33280631
0.09952507 -0.06258784 -0.27496042
-0.1295972 -0.06206400 -0.14067303
-0.05171971 -0.06728111 0.30670521
-0.17010172 -0.00653468 0.06472706
0.16207003 0.03766644 -0.07541131
0.08811148 -0.06206400 0.26070083
0.001807 0.08970100 0.07035156
0.17310155 0.00826471 -0.03208466
-0.05410095 0.08504790 0.05678144
0.24622195 -0.04353125 -0.2277859
0.07724546 -0.06441357 0.28229498
0.04747816 0.06330631 -0.19985529
0.12243347 0.08713603 0.13728504
0.18054377 -0.06102942 0.2822225
-0.24487594 -0.04374791 0.07312683
0.11509458 0.07874957 0.16998524
-0.09220408 -0.06206400 0.24575563
-0.02826388 0.06991500 0.18202034
-0.10044728 0.07908742 0.00652249
-0.17263762 0.05023076 -0.02828096
0.06239704 0.07769209 0.12592742
0.09003728 -0.06206400 0.24824318
-0.17639695 0.04693983 0.00650441
-0.23046782 -0.04763840 0.22356672
-0.24796565 -0.04233006 0.01684959
0.04165397 -0.06206400 -0.22670954
0.12455589 0.09819600 -0.12252725
-0.1583715 0.07483479 -0.08371689
-0.11830538 0.06991500 0.1123175
0.16454209 0.09819600 0.06687036
0.19820236 -0.06140724 -0.30453942
0.11858229 0.03237799 -0.15121923
-0.02987996 0.08859969 -0.0173328
0.11031154 0.01142031 -0.15895009
0.09683557 0.07886392 0.06702511
-0.18018072 -0.06017583 0.04190246
0.15330864 -0.06206400 -0.14699321
-0.1744333 -0.02562212 0.02717345
0.31320896 0.01948398 -0.09567714
0.08035556 0.08010397 -0.18326596
-0.1623649 0.00197057 0.08748075
-0.21645488 -0.04487052 0.27783994
0.13204959 0.08652968 -0.13440312
-0.00870801 0.07064740 -0.16542683
0.08928783 -0.03229445 0.19410713
-0.0136728 -0.06259347 -0.27501582
0.16302618 -0.04838135 0.08810862
-0.12558636 0.07233661 0.05650978
-0.08982523 -0.07839293 0.3451808
-0.07664089 0.07122352 0.1478969
0.17717917 0.08810534 0.00986207
-0.1337072 -0.00314966 -0.1303818
-0.20860675 -0.04463993 0.30877646
0.08529796 0.07055905 0.19627812
0.10963488 0.07813147 -0.00835797
-0.01313763 0.08449499 -0.07201152
0.17063788 -0.04047834 -0.05021541
-0.28619847 -0.00957857 0.1514081
-0.14642372 0.08285403 0.12570187
-0.30147557 0.02042900 0.13795015
-0.14224543 0.06991500 0.03347595
-0.02034338 0.07793988 0.21999919
0.08675705 -0.07660482 0.34068747
-0.13377464 -0.06757204 -0.32403192
0.10578025 0.01608128 -0.16318566
-0.1171236 0.07646079 -0.1517652
0.22747733 -0.05213269 0.12601525
-0.06714764 0.08298199 -0.02998819
0.04524762 -0.01204238 0.21614516
0.17359395 -0.04961784 -0.02752718
-0.09534023 -0.08102831 0.35180318
-0.18482578 -0.05956571 0.10173712
0.175859 -0.06085838 0.02962912
0.17242553 -0.02452262 0.05384792
0.0327217 0.00274871 -0.2026478
-0.08541268 0.07843549 -0.0655574
0.15618407 -0.06206400 -0.13696564
0.06061083 0.07251662 -0.16069167
-0.3018273 0.00812088 0.08392886
0.16250031 -0.06359972 -0.28492282
-0.02696491 0.08907811 -0.20343081
0.03343467 -0.06289552 0.26937241
0.08023584 -0.03963276 -0.18332641
0.17366758 -0.05225803 0.04235511
0.28724584 -0.01989296 -0.08138544
-0.0093817 0.07370634 -0.1777793
-0.15718856 -0.06206400 -0.2480825
0.27674049 -0.02826969 -0.19991325
0.28935879 -0.01820814 -0.07084502
0.28038247 -0.01904963 0.15087736
0.13657918 0.02851577 0.14271873
-0.1099999 0.08108486 0.17393018
-0.12163497 -0.06773262 0.31184675
0.20090555 -0.05748659 0.14500103
0.08103658 -0.06206400 0.20861252
-0.06473294 0.09253751 0.19169699
-0.06826401 0.06614286 0.20443238
0.17635192 -0.05154864 -0.00200869
0.15839716 0.07068908 -0.08621268
-0.29816802 -0.00297816 0.02319844
-0.18087452 -0.06008459 0.02068725
0.0279445 0.09284241 0.20591392
-0.01522015 0.09257795 0.22082087
0.09887008 -0.06931031 -0.34114688
0.05259768 0.07181234 0.17892646
0.17550051 0.05825217 0.02539484
0.22706037 -0.05036502 0.20808025
0.06513116 -0.06206400 -0.22442844
0.23270794 -0.04973249 0.01285716
-0.22776987 -0.05160989 -0.24261433
-0.1435157 -0.06206400 0.19497508
-0.21501165 -0.05519533 0.12059829
-0.15675225 -0.05558602 0.10398724
-0.29998329 -0.00009999 -0.11670929
-0.05203296 0.08233484 -0.06481757
0.15708124 0.08115530 0.00593891
0.17350387 0.02490994 -0.02836196
-0.08905333 -0.06206400 0.25166129
-0.06737788 0.04356387 0.2048795
-0.063648 -0.06206400 0.24906913
-0.2944457 -0.00888002 -0.02084548
-0.06050552 0.07935835 -0.08775723
0.22360674 -0.05390881 -0.05000866
-0.1398028 -0.07387460 0.34595
-0.1220449 -0.06206400 0.19446504
-0.13017534 -0.01046716 -0.13598909
0.15499757 0.03133099 0.1117186
-0.0356502 -0.00751323 -0.20203803
-0.27658522 -0.02769580 0.01029516
-0.1659988 -0.06203907 0.21198316
-0.19210746 -0.05860909 -0.168379
-0.10617501 -0.01339601 -0.16199961
0.27308554 -0.03118407 0.01807342
-0.10329152 0.06991500 -0.11761466
-0.12348404 -0.05540144 -0.14581977
-0.26488064 -0.03252707 0.1355781
0.15879501 -0.06764198 -0.32472045
-0.05565714 -0.06014000 -0.19528734
0.20384824 -0.05513353 0.25644091
-0.03550381 -0.02846021 0.21756772
0.23221084 -0.04996060 0.08706759
-0.07944531 -0.06206400 -0.25047739
-0.12897099 0.01217720 -0.13790127
-0.14342466 -0.04077825 0.13046166
0.0846045 0.08285511 -0.01337232
-0.03346233 -0.06411524 0.27975542
-0.13147312 -0.03915759 0.14943586
0.1378186 0.06991500 -0.03505987
-0.28577012 -0.02037197 0.05327446
-0.04818812 -0.08469761 0.36102404
-0.28473373 -0.02119836 -0.05888594
0.16283597 0.06390186 -0.07315906
0.0473631 0.02255471 -0.19991334
0.1531778 0.02865945 0.11636721
-0.07252275 0.07914483 0.20228356
-0.28479193 -0.02115195 0.05991624
-0.13206363 0.07198426 0.01978171
-0.15552257 0.07288773 0.1076037
0.17482027 0.03407907 0.03168921
-0.02005631 0.07676340 -0.17911965
-0.30525813 0.01360086 0.08552824
0.16616406 -0.02714702 -0.06337115
-0.09262284 -0.00537555 -0.17466762
-0.16497695 0.02956540 -0.06429001
-0.12060365 -0.00310478 -0.14851232
-0.04232705 0.07556776 0.21647339
-0.03410425 0.08056475 0.12063551
-0.18696711 -0.05928452 -0.00285934
0.26612379 -0.03540513 -0.09779315
0.11868178 0.01035854 0.16663286
-0.13868776 -0.01597240 0.13798251
0.12981243 0.08801102 0.12714769
-0.16244552 0.00612524 -0.07173448
0.17353884 0.08707167 0.04354639
0.22013644 -0.05311248 0.2008709
-0.0050661 0.06316304 -0.20694252
0.08264056 -0.06231132 -0.272238
0.0073339 0.07857234 0.14355597
-0.02826239 0.07517047 0.15637943
-0.11805128 -0.06807870 0.31472635
-0.1001138 0.02255972 0.18317163
0.14373196 -0.06278343 0.26841822
-0.06270156 -0.03028270 -0.19173285
0.17641402 -0.04214535 -0.00143405
-0.14856966 0.09416598 0.08656809
-0.04498291 0.07222741 -0.14686466
-0.1048709 -0.06909595 -0.33903624
0.00353732 -0.00549887 -0.20732784
-0.12877151 0.07637260 0.15372482
-0.04030019 0.07193538 -0.1701292
-0.17970871 -0.06070767 0.32302897
-0.10706053 -0.08431770 0.36163491
-0.09508968 -0.01894060 -0.17236171
0.23766122 -0.04517267 0.20671575
-0.17259347 -0.01067863 0.04419754
-0.02919524 0.08970100 0.00452387
-0.16369264 -0.06738072 0.32014669
0.02466925 0.08741638 -0.18939213
0.10273847 -0.06206400 -0.19856783
0.24057716 -0.04477991 0.1743357
-0.12746185 -0.06206400 0.20276137
-0.0296879 0.09020178 -0.20299415
-0.10622247 0.00852374 0.17746137
-0.27041809 -0.01554185 0.1983377
0.01764293 0.09632865 -0.20274587
-0.17143623 0.03668121 0.05490558
-0.14883179 -0.06206400 0.19926562
0.16230512 0.09714516 -0.00692501
-0.09099184 0.01222812 0.19169809
-0.01041442 -0.06273944 -0.276453
-0.11995531 -0.06206400 0.20217046
-0.03016623 -0.03789937 0.21842378
-0.12652085 0.05075791 -0.14179141
0.04940091 0.09728263 0.19985662
0.18170033 -0.06009126 0.09098518
0.12855723 -0.06305757 0.27075189
-0.0853236 -0.06206400 -0.24343287
0.07284354 -0.07555519 0.33804988
-0.12178445 0.01365219 -0.14740853
-0.03642252 0.08910859 0.01782458
0.0344758 0.07534484 0.1905675
-0.03602178 -0.06491698 -0.29789177
-0.13677045 0.04021275 -0.12551956
-0.14902445 0.07225809 0.01101867
0.0681997 -0.06206400 0.25889074
0.30157714 0.00480390 0.07353538
0.14783585 0.09267959 0.09119198
0.05952159 0.07592777 0.13848295
0.10927176 0.04394153 0.1754279
-0.13519704 0.07153519 0.00770243
0.09181617 0.08920339 -0.15819183
0.15257336 -0.06206400 0.16475425
-0.299931 0.00118317 0.05748389
-0.09750931 -0.06445573 0.28265381
-0.17878737 -0.06035899 -0.10431628
-0.06344887 0.08452376 -0.00832056
0.09697372 0.05621523 -0.17141713
-0.03234737 -0.03419075 0.21807396
0.23342529 -0.04944047 -0.2457697
0.28526108 -0.02147556 0.06335977
-0.18124272 -0.06003642 -0.1619956
-0.03139578 0.07643668 0.14848539
0.14695825 0.04125991 0.12624129
-0.10608486 -0.06585929 -0.3071692
0.16009181 -0.06621220 0.33805666
-0.03071227 0.08620772 0.07838523
0.27835499 -0.02698232 -0.05040401
0.04689317 -0.06206400 -0.22988695
0.2950957 -0.00923608 0.03738904
0.11765149 -0.06848798 0.3187069
-0.15745389 -0.02806725 0.10192375
-0.20631667 -0.05652519 -0.05407541
0.13113596 0.03217757 0.15136017
-0.21872351 -0.05462762 0.09002635
-0.28595818 -0.02022201 -0.02584202
-0.12237456 0.09118673 -0.1234407
-0.07822047 0.08079919 -0.04330041
-0.24165127 -0.04522769 -0.18295991
-0.10544846 -0.00541982 0.17818507
0.06201111 0.05884956 -0.19252221
-0.12952773 0.01722008 0.15252423
0.26415143 -0.03619149 -0.01675533
0.00665429 -0.07191070 -0.36674013
-0.11830171 -0.07010293 -0.34895073
-0.03517654 0.08883409 -0.00101692
-0.22004146 -0.05442605 -0.21645458
0.16793999 -0.06431941 -0.29364114
-0.10212297 -0.06206400 -0.22830257
0.2253578 -0.05311904 -0.23952792
0.13678443 -0.06206400 -0.21838134
0.05745284 0.08189230 0.09987097
0.25876321 -0.03833974 -0.03214986
0.21863563 -0.05477464 0.12880195
0.05009639 0.07200277 -0.14626105
-0.13462704 -0.06206400 -0.1801966
0.17558885 0.06915065 0.02457741
0.15323977 -0.05154885 0.11626885
0.11981175 0.09819600 -0.14049899
0.09356981 -0.06570177 -0.30561839
-0.12883546 -0.06206400 -0.17172921
0.07254876 0.08541980 -0.00278954
-0.17278394 0.06679098 0.04243513
0.20137468 -0.05741483 -0.15845544
-0.27122894 -0.03196677 -0.06420426
-0.2262957 -0.05227424 -0.05683881
0.23458749 -0.04729903 0.19130467
0.16406413 0.09016095 0.08505561
0.19369029 -0.05851612 -0.04493567
0.19521842 -0.05831532 0.08501439
-0.07571276 0.04813819 -0.18516796
-0.25733685 -0.03437711 0.17772245
-0.05454621 0.06715720 0.21135396
-0.12262094 -0.06206400 -0.24982497
-0.06968139 0.07976638 0.09565294
0.09517558 0.05545527 -0.17309785
0.17376375 -0.00625579 0.04146522
-0.06769222 -0.06976356 -0.34560969
0.06497286 -0.06468802 -0.29563755
0.22417606 -0.05354375 0.16340091
-0.07670191 0.04052045 -0.18466882
-0.26007491 -0.03746809 -0.07271726
0.24286286 -0.04507265 0.08562808
0.05240855 -0.06518319 0.2888464
-0.00211694 0.08605616 0.09512217
0.08516267 0.07936270 -0.15211206
-0.07476433 0.09819600 -0.17744292
0.04353063 0.08970100 0.00047559
0.22688122 -0.04383419 0.26741556
0.17063442 0.03504383 -0.0502256
-0.05441489 0.08637886 -0.17852945
0.30010874 0.01005953 0.11884341
0.18173439 -0.06008657 0.01876002
0.17145463 -0.05293134 0.06283167
0.0825812 0.08173115 -0.03851689
-0.17480396 0.07638431 -0.00823565
0.29679343 -0.00654406 -0.08480002
0.03307832 -0.06116837 0.2180969
0.14170462 -0.03027432 0.13458066
0.25664395 -0.03921283 -0.24215056
0.17638909 0.00128993 0.01717276
-0.17419595 -0.05017090 -0.01386167
0.08625997 -0.06857864 -0.33394272
-0.02749611 -0.06641459 -0.31263633
0.00548003 -0.06206400 -0.25448919
0.26343306 -0.02559502 0.20488716
0.29186938 0.00417594 0.15927578
0.02376074 0.08583503 0.09543839
-0.13386319 0.07166631 0.01545731
-0.15853126 0.04136076 0.09875529
0.26490945 -0.03320575 0.13226851
0.1471042 -0.06930028 -0.34104814
-0.16031581 -0.04335780 -0.07799797
0.07519399 -0.03693371 0.20137639
0.02158259 0.08256062 0.20018025
-0.04393029 0.08865838 -0.20071023
-0.29378771 -0.00976145 0.06053038
0.2010379 -0.04989776 0.32018963
-0.13417316 0.00424904 -0.12964223
-0.06510831 -0.01005227 -0.19051854
0.15476003 -0.00985387 -0.09690878
0.04947164 0.08501549 0.08410435
0.21824002 -0.05483515 -0.21649431
-0.17489784 0.03881065 -0.00736702
-0.27284023 -0.02422497 0.16581889
0.05676524 -0.07861520 0.34573933
-0.15893822 -0.06624512 0.33779672
-0.07495119 0.07444547 -0.11217847
0.13891642 0.04836413 0.13900818
0.1605276 0.03490290 0.09545641
0.04414233 0.08970100 0.04829652
0.13528781 0.06739764 -0.12926199
-0.04232825 -0.07123569 -0.36009763
-0.05012867 0.07649456 0.1387357
0.06748044 0.04486525 0.20526849
-0.01504184 0.08061254 0.1282862
-0.16997625 -0.06151654 0.16250116
-0.118539 0.06800357 0.16594814
0.11057078 0.06260005 -0.15870769
0.07819615 -0.06206400 -0.22805377
-0.03104763 0.09819600 -0.1951203
0.17225385 -0.06133227 -0.20850158
0.21859935 -0.05193172 0.23825408
0.22008543 -0.05455288 -0.11312149
-0.06021997 -0.08316744 0.35717861
-0.01376339 -0.06206400 0.22743627
-0.05848334 0.08533516 0.03771069
-0.1676852 -0.00136613 -0.05632495
-0.13938795 0.02059421 0.13687105
-0.20215078 -0.05716235 0.05052319
0.10442662 0.06991500 -0.11922065
0.05407551 -0.06206400 0.25353977
0.15482118 -0.00528463 -0.09672894
0.07237224 0.08584099 0.0157359
-0.15970425 -0.00382920 -0.07979663
-0.19582673 -0.05812048 -0.02044285
0.29150843 0.00832673 0.17001654
0.18747812 -0.05933209 0.0749571
-0.14020903 -0.02764378 0.13556605
0.10903789 0.05974721 0.17564651
-0.1722043 -0.00084511 -0.03229051
0.1482364 0.07768721 0.12421207
-0.10807591 -0.06206400 0.18145085
0.26585041 -0.03551412 0.01807788
0.0953646 -0.06206400 -0.26678203
-0.11801003 0.02739738 0.1664426
0.14860183 0.06963242 -0.10812421
0.19629659 -0.05310349 0.32330326
0.15075296 0.03963852 0.1202166
-0.0509405 -0.05631249 0.21317328
0.29759437 -0.00527404 -0.14397505
-0.02740804 -0.06885182 0.32007611
-0.01195044 0.08623851 -0.05713584
0.15985097 0.09100199 -0.08193751
-0.04518923 0.07142779 -0.15136771
0.00329296 0.08675343 -0.05676804
-0.13220069 -0.06206400 0.24657792
0.175248 0.07335699 0.02773135
0.13091726 0.07005054 0.07162074
-0.09491343 0.07640993 0.15393146
0.24472147 -0.04421978 0.0852422
-0.10291974 0.00058250 -0.16504247
-0.11626826 -0.02996364 0.16807094
0.01483405 -0.06593280 -0.30789289
0.12943514 -0.05919407 -0.13855358
0.16070209 -0.06206400 0.23153473
0.22299459 -0.05410790 -0.12743779
-0.11533257 0.08016552 0.16894539
-0.03527095 0.09819600 0.20622378
0.00290798 -0.08135789 0.35263139
0.12523497 -0.06206400 0.19493564
0.10741498 -0.06206400 -0.22397495
0.15042727 -0.06206400 0.19337702
-0.12805898 -0.07604983 0.34469309
0.14162666 -0.07169787 0.33916202
0.13186919 -0.06206400 -0.22794955
0.12438374 -0.01244348 -0.14579654
-0.11682118 -0.01928599 0.16755396
0.07349264 -0.06373219 -0.28622697
0.25196607 -0.04104972 0.05758132
0.14634763 -0.07367021 0.35115501
-0.16194245 -0.05121294 0.08872257
-0.10018791 0.03093823 0.18310226
-0.17076108 0.02401604 0.06115276
0.02219628 0.08523810 -0.20433567
0.1685558 0.00363407 -0.05633788
0.02808103 -0.06360405 -0.28496546
0.14274354 -0.06575553 0.29581992
-0.17872084 -0.06230349 0.2961023
-0.22726074 -0.03971500 0.27289324
0.11552021 0.06621000 -0.1540814
0.15083293 -0.06805659 -0.32880246
-0.11584374 -0.06206400 0.21433242
-0.11602447 -0.00011990 0.16829863
-0.15357138 -0.06353895 0.27484966
0.18203057 -0.06005846 -0.25459078
0.09724501 -0.06609078 0.29657236
-0.0503225 -0.07033822 0.32494028
0.07141053 0.08148855 -0.06121955
-0.28704211 -0.01465667 0.11934257
-0.09445337 0.08869911 -0.1729565
0.21506664 -0.05342153 0.21714641
-0.25754344 -0.03847742 0.0908067
0.09192003 -0.06531894 0.29000198
0.22909471 -0.05143573 -0.261768
-0.0774138 -0.07228302 0.32982731
0.0097736 -0.06316960 0.2717055
-0.13518316 -0.06206400 -0.23771729
0.08208016 0.07589839 0.11756111
0.07170642 -0.06206400 -0.21911378
-0.1826262 -0.06041762 0.2828106
0.13099257 -0.02759527 -0.13608081
-0.01222209 0.08157623 -0.09648234
-0.12199265 0.07256780 0.11248895
-0.15452696 0.09819600 0.09163012
-0.10233248 0.00553717 0.18109778
-0.03526543 0.07252696 -0.15004235
-0.10431103 -0.05132947 -0.16374192
0.0904179 0.07853544 0.0853015
0.15404545 0.07763071 0.00522687
0.24757898 -0.04088236 0.18397388
0.27440854 -0.03012914 -0.09436847
0.17921305 -0.06237269 0.29583931
0.13141743 -0.07030138 -0.3509035
0.14875674 0.07311876 0.02366797
0.03542348 0.07364597 -0.14461789
0.15347449 -0.05631764 -0.1003882
-0.26223848 -0.03660544 -0.05275252
0.04390021 -0.06942636 0.32264889
-0.00499581 0.07159465 -0.16096991
-0.11628091 0.07503780 0.04743336
-0.11155849 0.07005916 -0.09877925
-0.16322297 0.05458351 -0.06944872
-0.0300331 -0.06444697 -0.29326433
0.10417617 -0.06544118 -0.30305276
-0.13622227 -0.06819053 0.31952232
0.20627038 -0.05666599 -0.05502273
0.2933662 -0.01197846 -0.06591131
0.03426908 0.03326605 0.21790593
0.10426701 -0.06412535 0.27984145
0.00375204 -0.00103073 -0.2072934
0.16150285 -0.00497196 -0.07707906
-0.15970182 -0.01597562 -0.07980378
0.03684472 0.04714306 0.21749284
-0.22108306 -0.05426674 -0.17346017
0.24231295 -0.04532499 -0.10039291
0.09541049 -0.06206400 -0.18592578
-0.21415269 -0.05532671 -0.2058259
0.01136891 0.08970100 0.0033101
0.1330858 -0.06488187 -0.29754609
-0.01007679 -0.02313870 0.22164577
0.23758668 -0.04356643 0.24211001
-0.29074445 0.00179553 0.15555188
-0.04044871 0.07283981 -0.14562417
-0.19660641 -0.05687577 0.24941793
-0.17557567 0.04965483 -0.00109496
-0.31080607 0.01816940 0.03999974
-0.08365928 -0.06870018 0.31878525
-0.13415688 -0.03639051 -0.12966752
-0.1128295 -0.06741803 0.30787082
-0.22596808 -0.05242459 -0.16529587
-0.14922592 0.09819600 0.09025369
0.14514549 -0.06256320 0.26654352
-0.03981969 -0.03374144 0.21687553
-0.23395578 -0.04875909 -0.12097888
-0.16141469 -0.06758634 -0.32417269
-0.10623391 0.09559169 0.17555931
-0.00331468 0.07705524 -0.1321156
-0.00063529 0.05372725 0.22316003
0.30561814 0.01893361 0.11291626
0.13994812 -0.06647229 -0.31320441
-0.15040632 0.04342451 0.11937916
-0.08899937 -0.06206400 0.19621647
0.19564303 -0.05802742 0.28841784
0.13666262 -0.06206400 -0.22315001
0.25925393 -0.03814410 -0.15637193
0.1972074 -0.05805224 -0.08201842
0.14631405 0.04981526 0.12726397
0.10070556 -0.02174612 -0.16792897
0.17152257 0.06767542 0.06220305
0.14817619 0.09819600 -0.07854442
-0.29120487 -0.01401847 0.05632818
0.10990347 -0.06206400 -0.21708902
-0.08103797 -0.07055119 -0.35336183
-0.22150256 -0.05420258 -0.10615527
0.25138288 -0.04128224 -0.17154944
0.10797927 0.07837944 -0.01181232
0.16839234 -0.02462840 -0.05681853
-0.03115545 -0.04353214 -0.20275881
0.23354151 -0.04934999 -0.20398905
-0.17305392 -0.04995410 0.03993697
-0.27154962 -0.03171107 -0.21464905
-0.01386625 -0.06614015 -0.30993434
-0.17465318 0.08360260 0.02513883
0.01488885 -0.06206400 0.23385881
0.25869425 -0.03064938 0.20996671
-0.12651427 0.08914487 -0.11686878
0.26523496 -0.03575949 -0.12628162
-0.13129469 0.03619738 0.14971917
-0.13380385 0.08330460 0.14573597
-0.04565633 -0.06739036 -0.32224323
0.07806766 0.08002237 0.09061477
-0.17219021 0.09187075 -0.03242093
-0.00060908 -0.06349970 -0.28393802
0.15392245 0.03139507 -0.09937197
0.04978924 -0.06206400 -0.24013616
-0.16658608 -0.06196191 -0.21408481
-0.14187668 0.09618586 0.12943476
0.25366973 -0.04037048 0.02353222
0.02182755 -0.06206400 -0.23601699
-0.04864682 0.08108459 0.10613677
-0.02537405 0.08970100 0.04746201
-0.07243546 0.08339672 0.00694226
0.07916693 0.08237124 -0.03762667
0.17574536 -0.06087983 -0.24927304
-0.17338069 -0.05407935 -0.02140369
-0.30813618 0.01543880 0.06345451
0.17696986 0.00333661 0.01179885
0.02831296 0.07350604 -0.14737571
-0.21539854 -0.05513616 0.01759644
0.07648174 0.07596127 0.20072661
0.28016325 -0.02554046 -0.09008442
-0.14966513 0.07279370 -0.10504833
-0.31612204 0.02610834 -0.02580831
0.03500913 0.08430004 0.09977276
0.06945863 0.06391373 0.20427034
-0.13595575 -0.07025850 -0.35048162
-0.214375 -0.05170709 0.26431838
-0.15663781 -0.05558547 0.10432382
0.20341043 -0.05710345 0.0105941
0.15864588 0.08853779 -0.03885234
-0.11967784 -0.02415445 -0.14937776
-0.17992403 -0.06020964 -0.07075443
-0.04463334 -0.06765347 -0.3248336
-0.0699042 0.07829566 0.11050021
-0.14484013 -0.01464260 -0.11270813
0.16900395 -0.04010273 -0.05502009
0.17176131 0.08404714 0.059994
0.2031102 -0.05714937 -0.09757428
0.06461412 0.07833192 0.18018679
0.13304992 -0.05199622 -0.13281431
0.12866042 -0.07108121 -0.35857746
0.12790758 -0.06206400 -0.19036319
-0.24312334 -0.04455216 -0.12325059
0.0998314 -0.06206400 0.2521629
0.05837275 0.07291895 0.15382239
-0.16920574 -0.00825288 0.06736174
-0.09024457 -0.06689124 -0.31732911
0.24348954 -0.04478508 -0.10366644
0.13769584 -0.06206400 -0.13349438
-0.17987543 -0.06084279 0.32176336
-0.12768859 -0.06691311 0.30455599
0.17617797 -0.06657876 -0.3265942
-0.172025 0.04806611 -0.03394962
-0.01485444 -0.06206400 -0.23758029
0.03336366 -0.06253843 0.26633263
-0.14642934 0.02443411 0.12569211
0.28703506 -0.01881285 0.08507001
-0.04838977 -0.08281609 0.35629568
0.00930064 -0.06206400 -0.24418799
-0.1475758 0.08379970 0.07576646
-0.012039 -0.06844190 -0.33259629
0.28630982 -0.02063198 0.07324917
-0.07256795 0.07265058 -0.12643519
-0.2672984 -0.03458798 -0.09999483
0.26081924 -0.03395750 0.14787063
0.00989853 -0.01208013 0.22181454
-0.03375636 0.05141629 -0.20234173
0.11090409 -0.06206400 -0.1675815
0.19250071 -0.05867238 0.09656786
-0.01177601 -0.06206400 -0.25540602
0.10291535 0.08297226 -0.16586332
0.17736362 -0.06066070 0.06051613
-0.15867106 -0.06206400 0.12456741
-0.12628393 0.07275545 -0.02668324
0.1386553 -0.06206400 -0.15675718
0.29780374 -0.00494205 -0.06496231
0.25254402 -0.04081930 -0.06906062
0.20280995 -0.05719529 0.0840363
0.01854938 0.08970100 0.03765883
-0.09270779 0.07460242 -0.08930663
0.17008352 -0.05109370 -0.05184554
-0.2267258 -0.04325246 0.26675784
-0.14953099 -0.01266022 -0.10526116
0.18451614 -0.05972154 0.21970977
0.0966186 -0.06517753 -0.30045703
-0.20706384 -0.05519172 0.20602523
0.02355611 0.07342361 -0.14857155
-0.22716289 -0.03371836 0.28595277
0.17585368 -0.06085920 0.07691635
-0.04202754 0.03403370 0.21652143
-0.05589026 -0.06206400 -0.23387042
-0.2983304 -0.00103954 0.06288057
0.15500067 -0.06303027 0.27051946
0.00054787 0.06914802 -0.20780723
-0.11793375 0.07642887 -0.1101204
0.09885646 -0.04716854 0.18516321
0.27004282 -0.03361027 -0.07825409
-0.18688384 -0.05929533 -0.16567373
-0.02198658 -0.06206400 -0.24732108
-0.14411846 0.06878321 -0.11385408
-0.17388145 0.06188341 0.03227972
0.01732439 0.08120743 -0.10006449
-0.0818445 -0.07147893 -0.36249122
-0.29229025 -0.00820620 0.0985033
0.15706316 -0.03262702 -0.09013556
0.07866219 0.02414834 -0.1841204
-0.24368953 -0.04180775 0.20380055
-0.06304529 -0.01454556 0.20706559
0.3022643 0.00213085 -0.09448457
0.0814901 -0.01369318 -0.18269349
-0.19894278 -0.05765300 0.09242302
-0.02531169 0.08537168 0.090476
-0.00795716 0.08970100 -0.00275625
0.13352917 -0.06206400 -0.2315282
-0.18884062 -0.06363674 -0.31522689
0.14451298 0.09819600 0.11909936
-0.16823666 -0.06174507 0.16398495
-0.15606202 0.06564060 -0.09050884
0.1568932 0.01322340 0.10614436
-0.21640699 -0.05498192 -0.15900287
0.12417949 0.03809264 -0.14598746
0.05104046 0.09530354 0.21225981
0.03821309 0.08214815 -0.08521094
-0.08597849 0.07602745 0.10638866
-0.17149041 -0.05266904 0.05440425
-0.0537879 -0.06475035 0.28516185
-0.15225014 0.09743587 -0.06019433
-0.00099747 0.07278908 -0.20759497
0.08280032 -0.03213314 -0.18203238
0.15851282 -0.00913615 0.10138178
0.15161195 -0.02331389 -0.1033451
-0.17949308 -0.06026628 0.17343519
-0.05177727 -0.06206400 0.2242871
0.13477601 -0.06780097 0.31493365
-0.0840597 -0.06206400 -0.24600582
-0.04436245 0.08671334 0.05321362
0.28012403 -0.02557173 -0.15290721
0.19538406 -0.05829357 -0.08859109
0.11812218 0.08370544 -0.1516493
0.00905888 -0.05087759 -0.20644239
0.16580483 -0.00578324 -0.06442775
0.05679549 -0.06960877 -0.34408562
0.27705362 -0.02802001 -0.20612968
-0.15001596 -0.06108751 -0.10449102
-0.05338105 -0.06206400 -0.21796811
0.1753451 -0.06162595 -0.27674909
0.0248367 0.00012044 -0.20391225
0.06691364 0.03545147 0.20555449
-0.16066601 0.05001938 0.09247712
0.16586844 -0.00216706 -0.06424072
-0.26145831 -0.03691651 -0.16705222
0.17058043 -0.06789627 -0.33228947
-0.03744885 -0.06774978 -0.32578184
-0.10452525 0.01634812 -0.16354169
-0.10762683 0.08025465 -0.13164021
-0.07445019 -0.06296029 -0.27862736
-0.11388743 0.08641509 0.14825494
-0.0379535 0.09585518 0.20417446
0.28956942 -0.01799886 -0.04080837
-0.10650967 -0.06206400 -0.18733763
-0.13287156 0.09819600 -0.10835381
0.17232016 0.07822940 0.05482286
-0.14172465 -0.06206400 -0.18752608
0.12997964 -0.06206400 0.18224021
0.23991218 -0.04642665 -0.18938336
0.24441848 -0.04435882 -0.06598914
-0.09417912 -0.05336805 0.18871867
0.15705145 0.05697444 0.10567873
0.15874494 -0.06206400 -0.09364568
-0.07357355 0.08015784 0.08487845
-0.0628745 0.08128551 0.20715176
0.28147314 -0.02272558 0.09716668
0.29749293 -0.00543488 -0.05426197
-0.150237 -0.06206400 -0.11643922
0.08926768 -0.06206400 -0.19559188
0.09613395 0.04089788 -0.17220206
0.12777814 -0.05047925 0.15669085
-0.26002808 -0.01157156 0.23914632
-0.02073269 0.03862376 -0.20443022
0.0442832 0.02066664 -0.20079379
0.21398022 -0.04210871 0.30110242
-0.16251088 -0.03464351 -0.07154208
-0.11437462 -0.06582750 -0.30685624
-0.06074478 -0.00024742 -0.19272033
-0.03074913 0.08214736 -0.08396163
0.02901735 -0.06206400 0.2620634
0.18432255 -0.05974658 0.00966283
-0.13022532 0.02052124 -0.13590973
-0.01515654 -0.04202777 0.22083107
-0.07393829 0.05201192 -0.18606332
-0.09129237 -0.07005335 -0.34846275
0.12759744 0.09819600 -0.1292031
0.13972339 -0.06206400 0.18359686
-0.02072973 0.09819600 0.21188426
-0.07718485 -0.04863253 -0.18442518
-0.10755919 -0.07863209 0.34603764
-0.02043035 0.07832013 0.19583862
0.17251189 0.01000771 -0.03754082
-0.13262741 -0.06206400 0.1802519
0.01160291 0.08970100 0.00548083
0.23034614 -0.05081627 -0.11365403
-0.15678271 -0.02836325 0.10389766
-0.14220544 0.05520721 0.13239835
0.03758836 -0.03315069 0.21737357
-0.14661339 0.09233605 0.09232155
-0.07093169 0.00037344 -0.18758016
-0.05188477 -0.06206400 -0.26278341
0.16865465 -0.06180511 -0.14581908
0.12250668 0.08453345 0.16305706
-0.19142404 -0.05675419 0.31314599
0.06863465 0.08755574 0.2046861
0.3146487 0.02530956 0.06390291
0.13207978 0.08218658 -0.09798575
0.13436765 -0.06206400 0.2437204
-0.00179196 0.08128574 0.12605296
-0.17172452 0.07081105 0.052238
0.23383656 -0.03101499 0.2763726
-0.10778821 0.07536797 -0.05110408
-0.08380226 0.08702506 0.19659227
-0.11902724 0.03860798 0.16549175
-0.30133168 0.00203793 -0.07162066
0.16140601 -0.06206400 0.11205159
-0.15949214 0.09819600 0.06913482
0.18596052 -0.05953147 -0.05276905
-0.20474473 -0.05676561 0.13741447
-0.2694758 -0.03336469 -0.09513169
-0.04251156 0.08673338 -0.0223219
-0.15192945 0.07696475 -0.10145355
-0.03316273 -0.06911787 -0.33925213
0.26581768 -0.03552717 0.05969711
0.13734103 -0.06142622 -0.12600137
-0.26710779 -0.03466398 -0.11204475
-0.21563409 -0.05510013 0.0700927
0.09463747 0.09216044 0.17110466
0.08054381 0.08401402 0.02617805
0.03098986 0.07995692 -0.18065592
0.07261932 0.08151046 -0.0590529
-0.29197663 -0.00536569 0.12953843
-0.17310135 -0.06468664 -0.30510351
0.14464459 -0.06206400 0.1462149
-0.17704504 -0.06058789 -0.24364793
-0.11667157 -0.06579328 -0.30651931
-0.06326511 -0.07078708 0.3260682
-0.22283506 -0.05386230 0.00732268
-0.22092423 -0.05429103 -0.18459964
-0.18893477 -0.05902589 0.07557053
-0.213906 -0.05392124 0.20579032
-0.21063231 -0.05586514 -0.00833935
0.14840355 0.07512772 -0.02753352
-0.23113811 -0.05005210 -0.18251046
-0.03835063 -0.05669629 0.21711114
0.05846052 0.09577587 -0.19245556
0.20715785 -0.05653025 -0.0446664
-0.16221618 0.02558529 -0.07240924
-0.13026102 -0.06206400 -0.24483504
0.15586254 -0.06206400 0.22834279
0.30703587 0.01217482 0.06494512
-0.0685568 0.05059852 -0.18877865
0.01630747 -0.07079189 -0.35573044
0.02933307 -0.04168099 -0.20319121
-0.10822865 -0.02637823 -0.16007998
0.04333269 -0.06738201 0.30756413
-0.15342528 0.00057761 -0.09826364
-0.18748147 -0.06260688 -0.30332074
-0.13287186 0.02516822 -0.13170841
-0.29119838 -0.01402876 -0.06706261
-0.077913 0.07858415 -0.0754694
0.0331662 -0.06623568 -0.3108749
-0.12592809 0.08966030 0.13334936
-0.2372465 -0.04724900 -0.16432196
-0.17565436 0.00907347 0.01587491
0.03145927 -0.07025885 -0.35048504
0.22405546 -0.03548329 0.29271991
-0.16784409 0.03143157 0.07136609
-0.16698846 0.03213245 0.07388277
-0.22210177 -0.05253237 0.20212362
0.08328151 -0.03560923 -0.18178959
0.08067939 -0.06979419 -0.34591132
0.13860353 -0.06206400 0.26098719
0.13863675 -0.05900820 0.13945102
-0.05300452 0.07860452 0.12361303
0.10717463 0.05126638 0.17738811
0.26962243 -0.03394548 -0.18871291
-0.06807476 -0.03717828 -0.18902146
-0.1116869 0.06904748 0.17235323
0.19854028 -0.05784837 0.18233228
0.14749923 -0.06206400 0.20145983
0.08636402 0.07209509 0.13482853
-0.16679812 -0.06193406 0.09714545
-0.12721291 0.06608084 -0.14069268
-0.00066403 -0.06206400 -0.22599298
0.15519995 0.07029576 -0.09561504
0.25360948 -0.04039450 0.08654895
0.20645532 -0.05663771 -0.11681741
-0.10810014 -0.06206400 0.22352902
0.20514751 -0.05683775 0.13408761
0.14432327 0.05176762 0.13042447
-0.17653159 -0.06065561 -0.00579909
0.106459 0.07852752 0.03969273
0.00859938 0.08970100 0.0012836
-0.08964914 0.00246304 0.19295326
-0.13864401 -0.06206400 -0.13888682
0.14945474 0.03482804 0.1222775
0.03835111 0.04939669 0.21725124
0.10984805 0.07401653 -0.07045337
0.09694174 -0.06962217 -0.34421753
0.24576379 -0.04374149 -0.0498203
-0.18065927 -0.06011307 -0.07652442
-0.03839276 -0.06797696 -0.32801851
0.15826805 0.03708131 0.10210122
-0.14848846 -0.06237602 -0.27287495
-0.01423912 0.08970100 -0.01771338
-0.06816858 0.07701740 -0.1012812
0.01909189 0.08382009 0.10882964
-0.1588625 -0.06206400 -0.10954134
-0.16589924 0.05427061 -0.06157794
0.17994958 -0.06372017 -0.30335309
-0.02569061 -0.00599105 0.21914159
-0.21647776 -0.05497110 0.02739844
0.2399868 -0.04639240 0.0173463
0.24156993 -0.03105933 0.25681331
0.18482448 -0.05968083 -0.19675522
0.00489789 0.07110387 -0.17595348
-0.09733802 -0.06564192 -0.30502911
0.14189927 0.07950171 0.08318567
-0.16718197 -0.06188363 -0.14565284
0.1656886 -0.01852145 -0.06476945
-0.16855075 -0.04625803 -0.05377976
-0.25318362 -0.04021574 -0.0781365
0.1775792 -0.06063266 -0.12808019
0.25848122 -0.03845217 0.03169739
-0.25981853 -0.02923021 0.20651259
-0.07058982 0.07796305 -0.09268062
0.30586441 0.00783895 -0.04355375
-0.16984745 0.07906296 0.06547485
-0.10413359 0.06694626 0.17941379
0.23981766 -0.04514333 0.17517952
0.21110982 -0.05444572 0.20991386
-0.18247227 -0.05987489 0.09529684
-0.05735231 -0.06206400 0.25212455
0.06770211 -0.06218779 -0.2710218
-0.25535862 -0.03934854 0.09250807
0.18874042 -0.05958718 -0.27408959
-0.30044568 0.00830977 0.10042705
0.15636117 0.05471156 0.10770872
-0.00507525 -0.06917336 -0.33979849
-0.08118068 0.00482375 -0.18240853
0.01447819 0.06991500 0.18744734
-0.27884975 -0.02589011 -0.106505
0.16443502 0.07400379 -0.06845667
0.09022303 0.07978677 -0.14791769
-0.14317248 0.09627250 0.12722888
-0.031339 -0.05395079 0.21823568
-0.03771828 0.07329227 0.16141346
-0.1747975 0.07736872 -0.00829549
-0.26544208 -0.03532813 -0.03023923
0.1748035 0.02782796 -0.01633632
0.02363185 0.08055881 -0.10420082
0.06924418 -0.06380985 -0.28699158
0.29132348 -0.01521752 -0.072144
-0.25274482 -0.01713802 0.25161796
0.08338528 0.08331970 -0.00299838
0.12296883 0.00082778 0.16262532
0.17239059 0.07315360 0.05417121
0.16870323 -0.06855523 -0.3363373
-0.01772456 0.08970100 0.0144459
0.24449807 -0.04432635 -0.23247101
0.17257234 -0.06129014 -0.0512758
0.12878989 0.09112649 0.13013728
0.02046819 -0.06600478 0.29584032
0.10163823 -0.04242584 0.182564
0.14500342 -0.00708855 0.12934387
0.14651297 -0.06409232 0.27956028
0.04806852 0.08196743 0.21506336
0.02930602 -0.06206400 -0.22377503
0.02956795 0.08162600 0.19792239
-0.19507209 -0.05821961 -0.10014993
-0.30904756 0.01427172 -0.07245657
-0.08044713 -0.06206400 0.24999366
-0.02877622 0.08514197 -0.20314035
-0.17367841 0.06814815 -0.01865047
0.04945725 0.07950813 -0.10118408
0.21855863 -0.05478642 0.06999746
0.10324481 -0.06848010 0.31691177
0.11976679 -0.06206400 -0.21944617
-0.2057055 -0.05661867 -0.0856481
0.02502301 0.08570873 -0.06267042
-0.30393836 0.00617091 0.00986983
0.10528153 -0.03089671 0.17915935
-0.06985317 -0.04253590 -0.18812402
-0.05667392 0.08434052 -0.03194629
0.13355356 -0.06283488 0.26885618
-0.04159414 -0.06206400 -0.21979605
0.18023173 -0.06028415 0.08326637
-0.10302848 -0.02084971 0.18044744
0.06746826 0.07096843 0.17047513
-0.03639184 -0.03763807 -0.2019191
-0.16399653 -0.06206400 -0.1723812
-0.16904218 -0.06735154 -0.32606394
-0.07855459 -0.07106941 -0.35846136
-0.29511765 -0.00781462 -0.07592038
-0.04317124 0.05105636 0.216338
0.06028776 -0.06782086 0.31129991
0.01774218 -0.01819548 -0.20504993
0.02931593 0.07987363 -0.10835049
0.07664964 0.08463439 -0.00242013
0.16810129 0.00374216 0.07318253
0.23510961 -0.04863135 -0.23121431
0.05704813 0.09819600 -0.18453581
0.19558559 -0.05826711 0.18522774
-0.18116656 -0.06004643 0.18458819
-0.14193066 0.08584489 0.09781894
0.13474355 -0.06699280 -0.31832909
-0.16458314 -0.06206400 -0.26723944
0.11680859 -0.06206400 0.23487101
-0.19017307 -0.05886321 0.0608423
-0.30365118 0.00571558 -0.08983291
0.0012837 -0.06842332 0.3164284
0.07495359 -0.07112171 0.32690909
-0.27101292 -0.03213903 -0.0395996
-0.10389234 -0.06505581 -0.2992586
-0.06952253 0.07335744 0.14160464
-0.14580731 0.00618231 0.1266795
-0.03548547 -0.04615178 0.21757066
0.13946089 0.06130575 0.13814376
0.14329374 0.04192041 0.13205892
-0.00803472 0.08970100 -0.00599503
-0.04334537 -0.00396544 -0.20080403
-0.17402753 -0.01864824 -0.01542003
-0.1778297 -0.06048480 -0.18597277
0.17582201 -0.06086331 -0.05665665
0.1139823 -0.05170857 0.17102512
-0.30117637 0.00179167 0.01499722
-0.09500653 0.07282916 0.11775987
-0.15271899 -0.06206400 -0.1785675
-0.07339643 -0.06206400 0.22396565
-0.17397166 0.02980153 -0.01593703
-0.25922432 -0.03780723 -0.03598413
0.13645286 -0.07766823 0.3550884
-0.13814928 -0.06206400 0.17344688
0.27198721 -0.03077735 0.10463995
-0.09551309 0.06996455 -0.17196592
-0.26868602 -0.03260212 0.11080599
0.24854277 -0.04218963 0.12660901
-0.10002952 -0.02109688 0.18325074
-0.21218852 -0.05562712 -0.11436621
0.30994765 0.02403191 0.10698715
0.14247779 0.09369407 -0.11784697
-0.05185964 0.08787127 0.21270951
-0.20509848 -0.05671151 0.01386736
0.02835286 0.08937480 0.07003821
0.18016952 -0.06029237 0.12620581
-0.10125646 -0.06206400 -0.24601056
0.09347223 0.08169942 0.01341658
-0.00384684 -0.02852268 0.22264495
-0.13660968 -0.06876401 -0.33576788
0.04310472 0.08219378 -0.08236841
-0.05157018 0.04197054 0.21285557
-0.10582884 0.08933312 -0.14430947
-0.17079215 -0.01704532 -0.04535725
-0.0247054 0.08841636 -0.19035965
0.1767706 -0.06069814 0.24910294
-0.02584877 0.00578600 -0.2036098
-0.21933562 -0.05453400 0.09879283
0.16415581 -0.06206400 0.11055753
0.2080944 -0.05769479 -0.28296354
0.15831376 0.09819600 -0.04763829
0.06228964 0.07453224 0.1770914
0.06135616 -0.06561588 -0.3047727
-0.17311053 -0.03919828 -0.02390511
0.24446383 -0.04433799 0.11686743
0.22113954 -0.05439165 0.04180834
-0.21251475 -0.05500918 0.18471571
-0.00872321 0.08235513 0.1180196
-0.02262468 0.09543848 0.21827928
-0.06882179 0.08352921 0.04285799
0.30996315 0.01433764 -0.04285588
-0.00144331 -0.07703753 0.34177483
-0.12885634 -0.06849376 0.32111129
0.17425104 -0.06107023 -0.23146695
0.19692332 -0.05809137 0.1666594
-0.25070204 -0.04120519 -0.19408884
0.13454833 -0.06206400 -0.13443902
-0.0711519 -0.03154549 0.20297524
0.08622141 0.09523612 0.19458482
-0.13569627 -0.06711014 -0.31948433
-0.08156798 -0.02385354 -0.18221286
0.20208556 -0.05769149 -0.27383478
0.28877425 -0.01867424 0.0427167
-0.01823601 0.08970100 0.03751163
0.23982092 -0.04646852 -0.00952919
0.22475257 -0.05338302 -0.09756886
0.16935977 0.00333808 -0.05397378
-0.06146636 -0.06591944 0.29511385
0.2722018 -0.02411850 0.17920512
0.11954546 -0.01034639 0.16582549
-0.16285028 -0.01816231 0.086053
-0.28898652 -0.01753574 0.0615721
0.22213112 -0.05423998 0.00508957
-0.08045397 0.09819600 -0.17595266
0.25796081 -0.03776188 0.11783754
-0.13646363 0.07058380 0.03336251
-0.10457673 -0.06206400 -0.25738386
-0.05963341 0.06042741 0.20878711
-0.1735819 0.07182794 -0.01954354
0.18706221 -0.05939155 -0.23964968
0.13010453 -0.06206400 0.19406326
-0.05855042 -0.00828091 0.20933355
-0.12515496 -0.06458930 -0.29466566
-0.19941853 -0.05758023 0.06537345
-0.17205312 -0.06043318 0.04919947
-0.02624842 0.07442004 -0.14249283
0.24351347 -0.04477410 -0.01752763
0.07584308 0.08693346 -0.18554287
-0.12563485 -0.06741157 0.3093066
0.10422533 0.07360756 0.10030631
-0.05524759 0.05275064 0.21100006
-0.21875556 -0.05465910 -0.26877215
-0.05032287 -0.05850018 -0.19797892
0.21851042 -0.05222384 0.23123992
-0.11532949 0.07528111 -0.02852203
-0.10343548 0.06168691 -0.16456035
0.10886202 0.07611556 0.06666958
-0.01446692 0.08251432 -0.08847547
-0.14620048 0.04110020 0.12605607
0.11320039 -0.02095193 -0.15625005
0.16450692 -0.06181817 -0.06824451
0.23343717 -0.04939783 0.14304624
0.1213461 0.07172977 -0.09775635
0.12415873 -0.06978411 -0.34581209
-0.03510984 -0.06638627 0.2990878
0.05713269 0.08517062 0.074361
0.30816972 0.01384523 0.06189886
-0.04383217 0.01975241 -0.20072597
0.00452421 -0.08125531 0.35237362
-0.10521374 0.03541644 0.17840411
-0.08174735 -0.06369389 0.27616859
-0.17335342 -0.06107296 0.19461635
0.23723875 -0.04765342 0.00756498
0.1043518 -0.00478778 -0.16452083
-0.15773776 0.09763475 0.05696802
0.19080906 -0.05891126 -0.26979323
-0.15520447 0.09233315 0.06705485
0.25392893 -0.04026714 -0.19437287
-0.03511965 0.07222782 0.16818128
-0.18567794 -0.05945375 0.10459723
0.01071659 0.04397485 -0.20617656
-0.15651105 -0.06206400 0.22075778
0.19513016 -0.05832692 0.05419389
0.14058941 0.07053921 0.13635215
0.02711443 0.08617332 0.09154029
-0.19624021 -0.05808583 -0.26772961
0.25343208 -0.02693842 0.23325019
-0.06809054 0.08406314 0.02330459
0.02199207 0.08970100 0.0220389
0.13039543 0.08977140 -0.11203834
-0.11009182 0.08862806 0.17384426
-0.06099762 -0.07121121 -0.35985673
0.16847233 0.08992006 0.07209205
-0.05385745 -0.06206400 0.23445364
-0.11859597 0.07421280 -0.03507166
-0.24266445 -0.04476274 -0.0680158
-0.26673619 -0.03481214 0.09561644
-0.12243986 -0.06206400 -0.21021683
-0.10473895 0.07287129 0.10197022
0.17552283 -0.05022967 0.02518654
-0.10406813 0.07622145 -0.05040604
-0.24051637 -0.04574848 0.0296418
-0.2476009 -0.04249745 -0.14521627
-0.05821348 -0.07944785 0.34783168
0.22549784 -0.03619848 0.28737601
-0.17227631 -0.05037422 -0.03162323
0.16920636 -0.06173266 0.23425305
0.29120401 -0.01540695 -0.00664689
0.1441496 0.07018056 0.04335007
-0.23155161 -0.04986234 -0.01051456
0.17661163 -0.03136576 0.00039446
0.11242257 -0.04685140 0.17248279
0.02639619 0.08174198 -0.09436701
-0.12959897 0.08739850 0.15241126
0.30216421 0.00197216 0.03855522
-0.06634432 0.09726091 0.20188593
-0.03087564 -0.00516732 0.21831
-0.15664449 0.06216782 -0.08879577
-0.27254932 -0.03091394 0.07802493
0.14411686 -0.05195091 -0.11524414
0.1669162 -0.01879254 -0.06115934
0.017913 0.09819600 0.2120834
0.05235837 -0.07969156 0.34844408
0.27213811 -0.03193952 0.06461335
-0.17502529 -0.03979768 -0.00618769
-0.16272482 -0.06225054 -0.27163953
-0.28084073 -0.02430255 0.00841182
-0.05150327 -0.06801988 0.31299411
-0.13184971 0.06991500 -0.06265596
-0.045348 -0.06992246 -0.34717427
0.23043581 -0.05005299 0.17221838
-0.13187322 -0.06206400 0.15879576
-0.12678878 -0.06206400 0.18796213
-0.15327638 -0.00380469 0.11420962
-0.21608786 -0.05503073 -0.03210695
-0.02656324 0.08578891 -0.05281322
0.17374898 -0.02999185 -0.02609391
0.03859283 0.07276517 -0.17207027
0.00737991 0.07911598 0.14014644
-0.12082677 0.06991500 0.10793474
0.06823148 0.07894390 -0.16379867
0.2624685 -0.03686247 -0.06385094
-0.11570667 -0.06959828 0.3237656
-0.16548649 0.05462195 0.07830034
-0.01803443 -0.03753142 -0.20486291
0.28977975 -0.00010833 0.16131015
0.13216786 0.07551762 0.14972187
-0.17347295 -0.06105716 -0.19013971
-0.31263148 0.02330239 0.0637405
0.31804733 0.02806182 -0.035953
-0.1615821 0.01556809 -0.0742739
0.00510673 -0.06206400 -0.22994526
-0.10906395 -0.06206400 0.2121107
-0.24624713 -0.04311868 0.02596073
-0.24661405 -0.04295030 0.06096256
0.09869982 -0.06206400 0.19341026
-0.18951524 -0.05816229 0.25160465
-0.11609047 -0.06775173 -0.32580102
-0.00772519 0.07512956 -0.14167889
0.08345682 -0.06737133 -0.32205579
-0.16769903 -0.06181562 -0.07037011
0.02141985 0.07730177 0.14811102
0.06184135 0.08453871 0.0729597
-0.31678932 0.02734918 0.01256314
0.05581411 -0.06187225 0.21115509
0.12006196 -0.03097686 0.16534266
0.2365853 -0.04795327 0.11257983
-0.15976478 0.08811156 0.0327812
0.07450567 -0.06206400 0.2107203
0.20222875 -0.05728419 -0.03815588
-0.15832662 0.03535507 0.09935711
0.17442917 -0.02017377 0.03530806
-0.00095624 0.06925983 0.22310855
0.00633241 0.08602005 0.09671063
0.04994646 -0.06206400 -0.2431072
-0.10448462 -0.01306142 0.17908615
-0.20509747 -0.05671166 0.00067764
-0.15765722 0.06959362 0.1013258
0.13365519 -0.01605226 -0.13185331
0.10420364 0.07772465 -0.04201366
0.14479678 -0.00922471 0.12967191
-0.05156373 -0.06206400 -0.23321682
-0.11247857 0.07269993 -0.07369328
-0.04526292 0.02265776 0.21600253
-0.1568624 -0.00600487 -0.08815477
0.20289894 -0.05718168 0.11529316
0.0881327 -0.06206400 0.22431633
-0.03277729 0.07386748 0.16095822
-0.20365102 -0.05693289 0.13135359
0.25717617 -0.03897249 -0.12428493
0.09353031 0.07418734 0.11309278
0.23903183 -0.04362162 0.2289376
-0.13946542 -0.00296009 0.13674801
0.12038982 0.07021196 -0.09676781
0.24031531 -0.04624166 0.01289989
0.12780543 -0.03187503 0.15664752
0.24050691 -0.04378226 0.20626254
0.13123008 -0.06206400 0.25487383
-0.09649094 -0.02391344 0.18655749
-0.1476341 -0.00820117 -0.10827262
-0.06952813 0.09819600 0.18979945
0.23532433 -0.04853190 -0.10819833
0.23070541 -0.03658919 0.27276029
0.17505073 -0.04471067 -0.01404873
-0.10209377 0.07213352 -0.09581608
0.24572999 -0.04384674 -0.26807787
0.01524292 -0.00652817 -0.20545072
-0.10304197 -0.06206400 0.24377762
-0.13627216 0.01115436 -0.1263102
-0.1750694 -0.06084739 0.07676478
-0.09166251 -0.02602054 0.19107114
0.02655996 -0.04783128 0.21914233
-0.09269964 0.08298284 0.19010182
-0.09482025 -0.01074424 0.18811927
0.05170596 0.07517889 -0.12796158
0.03798849 -0.01279971 0.2173094
0.24075269 -0.04604095 -0.04905438
-0.03018186 -0.06206400 -0.21972414
0.1461576 -0.06206400 -0.20127873
0.0626466 0.04308861 -0.19220155
0.06410814 0.01765643 0.20697009
0.14029287 0.07259248 0.0694008
-0.20755719 -0.05633546 -0.13884553
0.10642671 -0.06741506 0.30784547
-0.00687372 0.08554583 0.20555985
0.25147543 -0.04027393 0.13034948
0.17240438 0.03680345 0.05404358
0.17907204 -0.06043647 -0.02764928
0.13503945 -0.06206400 -0.20510548
0.0793857 0.07006778 -0.13771909
0.04529483 -0.07066356 -0.35446757
0.06997232 0.02605107 -0.18850514
0.12422824 0.02056932 -0.1459419
0.12195565 -0.06206400 -0.26145053
0.2848549 -0.02179944 -0.1960542
0.08861596 0.08098382 -0.03353138
0.05593452 0.08869863 0.19647553
0.21970445 -0.05464644 -0.26506912
0.03875058 0.07735738 0.14210624
-0.25007831 -0.04145387 -0.03148195
0.09965292 0.02746104 -0.16891288
0.00027179 -0.06431622 0.28146626
-0.16932508 0.04382985 0.06701081
0.13963898 -0.06206400 -0.15460954
0.22723996 -0.05224161 0.05081291
0.16778981 0.08553223 0.07409924
-0.13247548 0.09687608 0.14317465
-0.26500565 -0.00978865 0.22671141
0.17956109 -0.06310795 -0.29682053
0.1753624 0.05468472 -0.01116478
-0.06509907 -0.06206400 0.23959245
0.30938655 0.01625836 0.06544181
0.29928647 -0.00259094 0.04787847
-0.07578265 0.06991500 -0.14188032
0.17519875 -0.06094539 -0.07873265
0.10614624 0.09815651 -0.15749652
0.01581803 0.08238453 -0.09096375
0.1169752 0.05340399 -0.1527214
0.16256709 0.02563651 -0.07394947
-0.26702809 -0.01271479 0.21502374
0.27694572 -0.02810605 -0.10701855
-0.16133562 0.09076077 -0.00813238
0.19619786 -0.05818666 -0.06433666
-0.10573671 -0.06206400 0.22083259
0.12309634 -0.06523902 0.28932172
-0.07119628 -0.06432080 -0.29202212
-0.01310852 -0.06206400 -0.20576666
-0.28262422 -0.02288044 -0.09738511
-0.05592048 -0.04284028 -0.19515454
-0.26319004 -0.03622605 0.0068712
-0.2896938 0.01082469 0.18033044
0.15951653 0.08446277 0.01269856
0.07749177 0.09371510 -0.17013218
-0.02328498 0.07542896 0.15596341
0.28421228 -0.02231185 -0.03262968
-0.14375781 -0.05096959 -0.11442581
0.17784773 -0.06059739 0.18120206
0.07153557 0.00847093 -0.18771635
0.06921122 -0.06206400 -0.24562395
-0.27298915 -0.03056323 -0.01507572
0.01461529 -0.03691159 -0.20555136
0.16529624 -0.06206400 0.25844765
-0.2872598 -0.01918413 -0.02144363
-0.10535805 0.07064332 0.13574146
-0.12223742 0.05698300 0.162491
0.12158979 0.07534911 0.01444717
-0.22909835 -0.05100862 -0.25072044
-0.13697871 -0.06206400 -0.20783282
-0.09499841 0.03875051 -0.17244702
0.16015858 -0.06206400 0.13108281
-0.05875822 0.07250519 -0.13831306
0.25972977 -0.03497603 0.14180998
0.04949594 0.09392105 -0.18425947
0.09427865 -0.06206400 0.19933935
0.19130197 -0.05882986 -0.18939948
0.1005395 0.07942720 0.04745699
-0.12132051 -0.07169146 -0.36458266
0.18176711 -0.05949902 0.32789675
-0.01550351 -0.06729076 -0.32126254
-0.17961153 -0.06025088 0.20218128
0.26607505 -0.02373542 0.20029181
0.00372566 0.08037257 -0.10885149
-0.00692751 0.08970100 0.06053489
-0.17358937 0.02455759 -0.01947441
0.14735672 -0.06308680 0.27100065
0.07493419 0.08447194 0.04507818
-0.17437034 -0.05442357 -0.01224776
0.1146512 -0.06842489 0.31747284
0.26976143 -0.02847290 0.15996061
0.22403776 -0.05371102 -0.0190426
-0.18065697 -0.06011337 -0.13015961
-0.26580267 -0.03391387 0.11263388
-0.04690339 -0.06998990 -0.34783832
-0.25117736 -0.04101567 0.02231968
0.21003601 -0.05611242 -0.25451755
-0.29848239 -0.00247972 -0.13760189
-0.09491599 -0.03170605 -0.17252409
0.11741131 0.00794171 0.16782051
-0.16059499 0.08857527 -0.01338554
-0.06964095 0.07706623 0.11899339
-0.12677517 -0.06206400 0.23398951
-0.24559987 -0.04341570 0.09824043
-0.0620044 0.09807727 0.19307383
-0.05773431 -0.06206400 -0.21273668
0.00842838 -0.03670813 0.22205032
-0.0240656 0.09553100 -0.19085215
-0.00868131 -0.06698808 -0.31828262
-0.01728776 0.08970100 0.03140324
-0.07516539 0.08046234 0.07877667
-0.12775511 -0.01515180 -0.13983175
0.17641452 -0.05884878 0.01693597
0.20468904 -0.05876620 -0.28835692
0.16115667 0.01814474 -0.07809715
-0.10446074 -0.06206400 -0.18274093
0.04241156 0.08720414 0.20150921
-0.21693029 -0.05770753 -0.29778705
-0.18229695 -0.05989793 0.16236981
0.13550153 -0.07095885 0.33043918
-0.21655418 -0.05495941 0.01981435
0.03861977 -0.06848942 0.31699114
-0.16080305 -0.06206400 0.23675168
0.05910135 0.07573054 -0.1211925
-0.0837893 0.06198015 -0.18109269
-0.17637329 0.03726694 0.00628541
0.08151556 -0.06371527 -0.28606042
0.11676678 -0.05131136 -0.15291622
0.05931596 -0.06889951 0.32048211
0.20581825 -0.05673515 -0.1650598
0.03702899 0.07925700 -0.10951469
-0.07665676 0.08066649 -0.04952155
0.20662123 -0.05661233 0.13727573
0.09239744 -0.01229427 -0.17569458
-0.12725191 0.04627944 0.15613716
0.11160207 -0.00500560 0.173251
