# .PCD v0.7 - Point Cloud Data file format
VERSION 0.7
FIELDS x y z
SIZE 4 4 4
TYPE F F F
COUNT 1 1 1
WIDTH 1437
HEIGHT 1
VIEWPOINT 0 1 0 0 0 0 0
POINTS 1437
DATA ascii
0.01021671 0.10937297 0.03895035
0.00868895 0.09004012 0.05140514
0.02847916 0.30626436 0.04360781
-0.02849089 0.04218159 0.02083772
0.04135048 0.46949103 0.01231843
0.04128754 0.45410531 0.01443673
-0.01798839 -0.19453849 -0.03385205
0.0124834 0.15644897 0.01087764
0.03600791 0.38757102 0.04087935
0.03269058 0.39975854 0.04710847
0.02731424 0.31729895 0.00809984
0.0171241 0.01876633 0.02165208
0.03229109 0.37114629 0.03221696
0.01716681 0.23023329 0.02573366
0.04101143 0.49016436 0.0390205
0.04344669 0.51673594 0.03756078
0.04470153 0.48091598 0.02747583
0.05281303 0.56863257 0.0495851
0.00699276 0.03542062 -0.01952101
0.03585833 0.03438122 -0.00607852
0.04547557 0.49017389 0.02006175
0.04707262 0.55636691 0.0337987
0.06316002 0.71395523 0.03591724
0.00479577 0.05093434 0.03212573
0.00463796 0.03885050 0.04819545
0.02895965 0.35918432 0.02497957
0.05820685 0.62639424 0.05874837
0.02988436 0.36973746 0.01903449
-0.01777896 -0.14363892 -0.01525344
0.00785466 -0.16304329 -0.06356796
0.0473908 0.53487045 0.03745097
0.03263197 0.35115873 0.0285652
0.04845728 0.54648250 0.02817982
0.01594834 0.17124833 0.02994786
0.06077455 0.66148372 0.03293715
0.02242759 0.26419520 0.02930446
0.04604241 0.52577611 0.06188554
-0.01763294 -0.12328965 -0.00615804
0.04982749 0.56138343 0.0206746
0.00921643 0.09858138 0.0392485
0.00674404 -0.18941041 -0.05629803
0.00679578 -0.09502775 -0.00847715
0.01869373 0.22380470 0.0098385
0.01987888 0.03392024 0.01142559
0.03243108 0.39693209 0.04717107
0.05970289 0.64309086 0.03789844
0.02664163 0.28435389 0.00896697
0.02314965 0.29612303 0.01949219
0.05007199 0.56394579 0.03763245
0.03229378 0.39509803 0.03861218
0.02201632 0.03334922 0.04846711
0.05086465 0.59783892 0.03362193
0.03774157 0.40554365 0.04996094
-0.00441975 -0.09801460 -0.02551249
0.03297937 0.37850417 0.05402981
0.01121027 0.11816926 0.00504088
-0.00305799 -0.14381868 -0.04592411
-0.00357513 -0.09559440 -0.02410125
0.01166862 0.12493355 0.01536459
-0.03334162 -0.17082630 -0.03548168
0.00300634 -0.10586038 -0.02215639
0.05771316 0.62140188 0.03354279
0.01739758 0.18642433 0.01387677
0.00173953 -0.03914884 -0.00299708
0.05477196 0.60215429 0.02509077
0.03972146 0.47652512 0.05062585
0.05504119 0.59255466 0.03230294
0.00274356 0.05081507 0.01276873
0.05381233 0.60456010 0.02734158
-0.01260487 -0.12894447 -0.00648204
0.00252928 0.03651155 0.00559512
0.03612219 0.39164609 0.05864212
0.01168184 0.14755523 0.0520423
0.04020228 0.45697716 0.02507275
0.00610064 0.06224524 0.05061548
0.00557546 -0.17926588 -0.03522616
-0.00613418 -0.14892730 -0.06692253
0.03465635 0.42117202 0.04835085
0.06713792 0.74884745 0.07094253
0.04727734 0.53373128 0.0199839
0.0642654 0.74219898 0.05288985
0.03126 0.35992951 0.03967304
0.0124504 0.03875769 -0.01406085
-0.00541669 0.03438437 0.01294609
0.00416241 0.06627220 -0.00052322
-0.0219782 -0.13254890 -0.01544614
0.05536889 0.62135497 0.04419285
-0.00143799 -0.17761325 -0.02898576
0.00267952 0.05009952 0.01692126
0.03675674 0.41944870 0.05770808
0.02897966 0.03701654 0.00750914
0.02489657 0.31557197 0.01529666
0.00663297 0.09286165 0.0396198
0.06002067 0.67684276 0.0291362
-0.03150569 0.03858384 0.01885801
0.04839689 0.52001956 0.05695037
0.00628679 -0.17130689 -0.06722367
0.05367472 0.57725096 0.0576569
0.04903203 0.55601085 0.01807551
0.02393759 0.28061350 0.02129512
0.06968773 0.76420876 0.07107493
0.02401579 0.25603633 0.05338517
0.00181235 0.02932458 0.04212552
0.02825939 0.32750217 0.01723384
0.04174959 0.49912469 0.05514925
0.00900056 0.11873236 0.00069627
0.02577862 0.03741020 -0.00228749
0.05591157 0.65257861 0.05010395
0.03588505 0.03257393 -0.00145453
-0.01665421 -0.10976085 0.00153018
0.00257352 0.04901195 0.00534239
-0.01667356 -0.02373331 0.02281588
-0.01186417 -0.19520720 -0.06794638
0.0434917 0.46830445 0.03977235
0.0117318 0.14820749 0.02870554
0.03733812 0.45124841 0.05472973
0.0131576 0.16768665 0.00103055
0.04204985 0.47697288 0.0327206
0.03484153 0.39868436 0.05646425
0.02148958 0.22981042 0.00910904
0.06246547 0.69816432 0.07344496
0.01038409 0.15327744 0.0044021
-0.01534634 -0.16122529 -0.0272311
0.03859812 0.41493077 0.0238645
0.02706995 0.31448149 0.04128299
-0.0076491 0.03590142 0.06668181
-0.01397671 0.02091112 0.02413424
0.00424603 0.06711000 0.01254124
0.05688432 0.62666992 0.02672309
0.05834215 0.65358316 0.04742821
0.06153008 0.66241649 0.06181914
0.00952459 0.14761495 0.04572484
0.0267177 0.33601528 0.01306766
0.00691427 0.03722801 0.01604998
0.00822519 0.08795928 0.02620347
0.00789853 -0.03793051 0.0191379
-0.00806654 -0.18712303 -0.07278502
0.04068568 0.48724292 0.05260723
0.04185464 0.50012816 0.05419032
0.02668003 0.28639867 0.0460614
0.02271328 0.26724939 0.03864319
0.03028319 0.34939936 0.02667622
-0.0100436 -0.19234817 -0.0320184
0.00944499 0.12332081 0.04733911
0.06008722 0.67244155 0.06056115
0.03494846 0.39989393 0.04710434
-0.00111466 -0.06154581 -0.01067172
0.00446495 0.09267119 0.00447226
0.06118346 0.68436019 0.05474175
-0.02217783 -0.15052822 -0.06666918
0.01060099 0.15855041 0.04072949
0.01213872 0.03815528 0.04851547
-0.00446887 -0.13366062 -0.04265191
0.02629814 0.32400358 0.00859213
0.02278012 0.28634485 0.05655993
0.04297923 0.51183422 0.03144439
0.03073033 0.35414059 0.048719
0.04722611 0.53018597 0.01603099
0.01141221 0.16785648 0.01402663
-0.01819555 0.04109902 0.03407367
0.05049881 0.56861723 0.02913683
0.04683632 0.55446417 0.05905544
0.0508461 0.54674860 0.05572168
0.0286827 0.33148112 0.0047464
0.02104282 0.22338677 0.05523169
0.00159604 -0.19564776 -0.05729478
0.00327782 0.05665938 0.00274324
-0.03079181 -0.15031790 -0.05225319
0.00419981 0.08899949 0.01880982
0.02544286 0.32118540 0.02009031
0.03036134 0.32473709 0.01077946
0.03405092 0.36645331 0.02881318
0.00961346 0.12513611 0.04917238
0.0031577 0.07966393 0.00636153
0.02941762 0.31584272 0.01810294
0.03754857 0.40420936 0.0373152
-0.01346849 -0.14363316 -0.05177797
-0.01906543 0.04116670 0.03531398
0.01073822 0.11281029 0.05016167
0.00622472 -0.04508321 -0.00143242
0.02795586 0.34825794 0.04773282
0.03630951 0.41479487 0.01881913
0.01264299 0.18256067 0.05463235
0.03462354 0.37209981 0.02299613
0.03892146 0.44297231 0.04815801
0.02048109 0.22016050 0.02632205
0.01014882 -0.00192091 0.0336559
0.01133777 0.14401991 0.01197712
-0.02246388 -0.07667573 0.00375966
-0.0187896 -0.06696744 0.01112483
0.04373082 0.52077981 0.06035449
0.01164962 0.12490493 0.02502006
0.01892944 0.20217029 0.04832269
-0.02094479 -0.19494247 -0.03550883
0.002515 0.07039875 0.03888753
-0.00775142 -0.15890289 -0.0587446
-0.01653401 -0.16723065 -0.0289991
0.01256896 -0.01472794 0.01135359
0.00078982 -0.12195704 -0.03145792
0.01214626 -0.01859222 0.01022528
-0.00614068 -0.15926790 -0.02861324
0.05738345 0.64315450 0.05403083
0.06781016 0.75614957 0.06792528
0.04292268 0.48645127 0.03017589
0.04367724 0.47029885 0.041055
0.00482878 -0.09698469 0.00030951
0.04577168 0.51724436 0.05106345
0.00837136 -0.06296970 -0.0017062
0.00232725 0.06807136 0.00720677
0.04810619 0.56744881 0.04342983
0.00472458 -0.16420846 -0.06824501
0.0585652 0.68162604 0.0658215
0.00916941 0.12044901 0.02288346
0.05471312 0.58869435 0.02856942
-0.01194019 -0.19434733 -0.06885436
0.03323254 0.40669511 0.01730325
-0.0303769 -0.16037785 -0.04073042
0.0145594 0.18459366 0.00190226
0.01047844 0.11238886 0.00789244
-0.00886825 -0.07769467 0.01650125
0.03869167 0.41649485 0.03027628
0.06003281 0.64670459 0.04497005
0.0272722 0.29336988 0.03521041
0.0606454 0.70419814 0.0634948
0.02032821 0.24138105 0.03936922
-0.01162721 -0.00486936 0.01452937
0.03853362 0.41482026 0.04004688
0.03388348 0.36411472 0.02273576
0.04129709 0.49440621 0.05715528
0.06227704 0.69633630 0.03135515
0.02234833 0.25633799 0.05599267
-0.01411155 -0.16834116 -0.04337038
0.00078016 0.03534443 0.04483135
0.06972638 0.75122665 0.07649649
0.00409364 -0.19366986 -0.04911647
0.02571524 0.27594158 0.01694705
0.02506846 0.30818979 0.00770161
0.03942001 0.42426254 0.02931022
0.04891526 0.57701682 0.05782143
0.00622977 0.06640736 0.03128311
0.01649683 0.17686680 0.01976445
0.06400684 0.72262515 0.07645079
0.0418167 0.50013881 0.02184563
0.01699232 0.01715079 0.02723343
0.02504715 0.26934407 0.03970836
0.03641364 0.43997168 0.04250998
0.02705682 0.31426100 0.05689425
0.03315701 0.40562175 0.01872599
0.00629152 0.06710437 0.02556072
-0.00888072 -0.07362214 -0.0141326
0.02388647 0.28008447 0.01624148
0.0256747 0.27562653 0.0185146
0.00761471 0.08132023 0.03618418
0.05286216 0.59422415 0.03338706
0.00727232 0.12226956 0.04123232
0.05540527 0.62164802 0.06451549
-0.02120392 -0.06024851 0.00312325
-0.00940421 -0.01313978 0.03303666
0.05552787 0.63844868 0.02921575
0.02019817 0.24009730 0.01406369
-0.03874479 0.04298546 0.03491679
0.06678001 0.74495504 0.07326742
-0.01392082 -0.06623898 -0.01138077
0.00347625 0.07580976 0.05277705
0.00887262 0.02906127 0.04077975
0.05439984 0.58550190 0.03047461
0.00649401 0.00467328 0.03750831
0.04338868 0.47361245 0.01695619
0.02576978 0.27664273 0.02013821
0.01661515 0.17805632 0.04366223
-0.01403268 -0.17175618 -0.03814545
0.02145651 0.23017120 0.01652069
0.05070255 0.54568007 0.02988958
-0.02255333 -0.11226376 -0.02766688
0.03341768 0.38323869 0.05823951
0.03798271 0.45716664 0.03533826
0.04751161 0.56100674 0.04112346
0.05148975 0.60440746 0.0404187
0.01592289 0.19360457 0.03998664
0.02362812 0.30120686 0.02194969
-0.01838855 -0.13009850 -0.04225862
-0.02684781 -0.12401560 -0.02674271
3.595e-05 -0.16000397 -0.03618139
0.01463483 0.20262367 0.02579225
0.06171618 0.69012038 0.05857388
-0.04053223 0.04257882 0.01345453
0.05320987 0.62334698 0.05413469
0.00365366 0.03859650 0.03544963
0.06101169 0.65704525 0.03545002
0.0109795 0.11580553 0.04881205
0.01483157 0.20468814 0.04217584
0.00446924 0.06939474 0.0401197
0.06687837 0.76216162 0.07009273
-0.0216793 0.04192111 -0.0156123
0.03249244 0.34879787 0.04967376
0.01439087 0.17157548 0.00156752
0.0330149 0.35477071 0.04768984
-0.02761915 -0.19227694 -0.0645406
0.00945856 0.12373714 -0.00131281
0.00434151 0.09098044 0.00703008
-0.01780767 0.03768270 0.06929443
0.00144538 -0.14802495 -0.0427843
0.0194142 0.20804523 0.01329854
0.04412696 0.49987351 0.0127246
0.02523969 0.29467465 0.03277999
0.01026611 0.03498716 -0.0064571
0.02335194 0.27433721 0.00673183
0.03257658 0.37437107 0.00684615
0.00844127 -0.16416340 -0.03876264
0.00394284 -0.05578354 0.02127542
0.01249405 0.13377488 0.00909141
0.06832382 0.73602576 0.07464701
0.01131008 0.14358890 0.03830673
0.00151433 -0.17817013 -0.07101228
0.00132531 0.05750693 0.02310535
0.02336577 0.29781884 0.02759393
0.06512134 0.70142518 0.05657783
0.04649282 0.52991883 0.01659694
0.00826296 0.08833946 0.03125904
0.01049449 0.11242069 0.02943473
0.06392196 0.71669266 0.03377186
0.03298374 0.40273920 0.04611483
0.04072018 0.46264940 0.01349205
0.00170339 -0.00090754 0.03756761
0.01210334 0.16882050 0.00408147
0.02490916 0.31454436 0.04177293
0.04938348 0.53124051 0.0522083
0.06609563 0.73756542 0.06643853
0.00547007 -0.04844012 0.02000659
0.01302048 0.02234536 0.03631816
0.0599567 0.67598395 0.02899212
-0.00668596 -0.16460258 -0.05015628
0.00304669 0.07860099 0.00629939
-0.02144973 -0.07691675 0.00665405
0.0106465 0.13265632 0.05375316
0.04433019 0.52729671 0.02477075
0.04171651 0.49830346 0.02862439
0.01672824 0.20234199 0.03917517
0.0367324 0.39519141 0.02740716
0.03593072 0.38513763 0.05427577
0.04133965 0.44399639 0.01945787
0.03360253 0.38534851 0.03638167
0.06796735 0.75784204 0.07087704
0.01357829 0.14547598 0.01673727
0.05383586 0.62445730 0.06743837
0.02605211 0.27953627 0.01679721
0.03284896 0.36786198 0.05815919
-0.00641958 -0.14253982 -0.0474329
0.06374533 0.73787628 0.05052143
0.04329118 0.03550184 0.02683178
0.03604442 0.43653104 0.04979925
0.03488563 0.39936684 0.01612674
0.00408848 0.03491629 0.05699694
0.01429155 0.17608635 0.00639203
0.04073538 0.46316931 0.06012141
0.04629208 0.52180159 0.01474723
0.01726429 0.03427710 -4.484e-05
-0.01113144 0.03675700 0.01369587
0.06329107 0.68179762 0.04959701
0.02753797 0.29523750 0.04915022
-0.03760701 -0.18146325 -0.05359077
-0.02342937 0.04164880 0.02737403
0.02910445 0.33671052 0.00901724
0.0416719 0.47280812 0.04673334
0.0439273 0.47288544 0.04557469
0.02954556 0.34147196 0.0122348
0.00336474 0.05753082 0.01686091
0.0129703 0.13912205 0.03037915
0.0490995 0.57806337 0.02696796
0.01578784 0.01389105 0.01818621
0.00195879 0.03941780 0.01645731
0.02145666 0.23068094 0.02665418
0.02514452 0.29373601 0.01457821
0.00930219 -0.02314893 0.02814096
0.02402339 0.28160951 0.00874421
0.02766251 0.32112462 0.00382248
0.0595272 0.65609486 0.0292353
0.00869223 0.13810404 0.00828995
-0.00422301 -0.15559587 -0.07077227
0.00210536 -0.13732314 -0.02229943
0.0132608 0.15432883 0.00229602
-0.0123017 0.03637236 0.06253102
0.05408723 0.58169068 0.06409889
0.02540598 0.29657376 0.01412248
0.00607063 0.06475817 0.0100786
-0.02894607 -0.19597993 -0.0577393
0.00468583 0.07168563 0.05200221
0.03417874 0.36783180 0.04237975
0.05573523 0.60030812 0.04798949
0.02127332 0.25165300 0.0345414
-0.00346826 -0.10064857 0.00626376
0.04334676 0.49091926 0.05654825
-0.00789952 -0.02405872 0.00094961
0.00476504 -0.15816453 -0.06562852
0.01468415 0.00449436 0.01599182
0.03429426 0.41820913 0.05521937
-0.00214269 0.03944778 0.05100239
-0.00811756 -0.05580195 -0.00920798
0.03104797 0.35756520 0.05321062
0.05900408 0.66075227 0.04889763
0.01341984 0.14355471 0.01186503
0.01516255 0.16276439 0.03137121
0.0324088 0.37671805 0.00674855
0.05548686 0.64821607 0.05568846
0.02742506 0.31846778 0.01455752
0.01133734 0.12132515 0.01009372
-0.02033336 -0.19542350 -0.06642925
0.01088565 0.13897671 0.04032423
0.01530241 0.03469037 -0.02308118
0.06286877 0.70260898 0.06015262
0.02494082 0.31501112 0.04394825
0.02923925 0.31460288 0.02902746
0.06772418 0.75517246 0.07774268
0.00687737 0.07308800 0.041849
-0.01280402 -0.16694787 -0.04569232
-0.02100317 0.04115526 0.05415175
-0.0189055 -0.06354585 0.00665878
-0.02192852 -0.16765264 -0.02736721
0.04094467 0.48996063 0.05172127
0.03380709 0.41022336 0.01416344
-0.03613506 -0.16070461 -0.05517266
0.03674993 0.44427029 0.05104759
0.0648168 0.74943758 0.06260316
0.01744103 0.21021999 0.00979533
0.04336458 0.49119242 0.04046984
0.0051895 -0.16568974 -0.03400119
0.0144893 0.17827210 -0.00231428
0.0182929 0.21927008 0.04767303
0.05307282 0.62209627 0.05893442
0.00135636 -0.15261960 -0.03479937
-0.0109175 0.03645023 0.04215489
0.0120826 0.17760173 0.05435267
-0.03479387 0.03893582 0.01402275
0.05391473 0.58451944 0.02641904
0.02678527 0.03345015 -0.0051186
0.04338684 0.51705565 0.05963335
0.01639363 0.19868598 0.04357483
0.0113945 -0.17700413 -0.04758549
-0.01780044 -0.15424870 -0.05848484
0.02614639 0.28045607 0.01485174
0.05461288 0.61317391 0.04045681
0.06520747 0.70251893 0.04474203
0.0323993 0.37223266 0.04969019
-0.01643308 -0.07363642 0.0142952
-0.00879109 -0.19939198 -0.06186865
0.04390292 0.47127343 0.05936538
0.03953638 0.42560461 0.03058271
0.02564415 0.29906714 0.03142604
0.04459677 0.48826789 0.01745268
0.00605926 -0.17397702 -0.06744471
0.04572537 0.54183485 0.05119306
0.03714709 0.03213784 0.03026087
-0.022542 0.04140300 0.04364201
-0.02554621 -0.10919651 -0.01866807
0.03761668 0.44118774 0.0129489
0.00826736 0.11062187 0.03198981
0.0006451 -0.09489889 0.00664301
0.05970512 0.64310818 0.0376316
0.01284432 0.03417768 0.05022439
0.03536317 0.03222417 0.0380153
-0.04140556 0.04256147 0.02435567
0.02197574 0.23418989 0.05200392
0.0431527 0.49189865 0.01311857
0.01519906 0.16312410 0.0376905
0.02186955 0.23336055 0.05115345
0.01555975 0.18966570 0.04018008
-0.02774085 -0.14395511 -0.04144113
0.01297283 0.03436122 0.03085144
0.01580606 0.16683925 0.00701189
0.02910622 0.33659297 0.03537623
0.03293964 0.37830155 0.00894963
0.02083746 0.22394765 0.03724924
0.03408077 0.41615043 0.01653825
0.04529321 0.53696884 0.04888445
0.03484973 0.42354435 0.02545742
0.0057808 0.06175941 0.0089201
-0.00911423 -0.04010132 -0.00359299
-0.00358359 -0.09957121 0.0068131
0.03359848 0.38528278 0.0407687
0.00344023 0.03635462 0.02425574
0.01207561 0.12943330 0.02122711
-0.01547632 0.04126959 -0.00770262
-0.0186736 -0.09761529 0.00464346
-0.0266365 0.03797421 0.03477097
-0.02092541 -0.14310503 -0.05380928
0.05709704 0.64015691 0.03206361
-0.01700499 0.03711733 0.03166762
0.06182192 0.67947479 0.03304915
0.01220784 0.13063787 0.01437441
0.03681181 0.40424639 0.01209158
0.01839744 0.19702049 0.00916579
-0.01108255 -0.01782213 0.00454422
0.00027722 0.03921522 0.05192446
0.05352759 0.57632964 0.03298244
-0.03688097 -0.17492825 -0.06031575
0.03989061 0.47871082 0.05377332
0.06343819 0.72788807 0.04339137
0.01923834 0.22960843 0.02950211
0.03318332 0.37901764 0.00634761
0.00699098 -0.04052034 0.00026971
0.02921163 0.33765585 0.05203455
0.00303805 0.03527245 0.03129423
0.06518412 0.70202929 0.06481835
0.04977989 0.58595032 0.03392962
0.00959721 0.14846842 0.0077081
0.05474372 0.58947064 0.05011433
0.00613744 0.03919848 -2.072e-05
0.06424657 0.69216513 0.04728215
0.01570079 0.03404359 0.03740123
0.06016362 0.69896157 0.04227943
0.02070571 0.27074201 0.05315016
0.02350163 0.30016267 0.01586909
0.01066707 0.13674996 0.0111109
0.03656946 0.39363502 0.03967536
0.03641359 0.44072950 0.02466064
-0.00674392 -0.18326843 -0.07372275
0.02504062 0.29256273 0.02363895
0.04025368 0.45757782 0.01682607
0.04303724 0.48765103 0.03898695
0.00424724 0.08933765 0.0292393
0.03679896 0.44416815 0.04357916
0.04334424 0.49100408 0.03395198
0.06488569 0.69904951 0.04609665
0.01582047 0.21548679 0.03661112
-9.05e-05 -0.11070907 -0.02803696
0.00362694 0.03768056 0.04300841
0.0634193 0.71806202 0.03772401
0.04272401 0.03163585 0.02904658
-0.0105438 -0.04260454 -0.0039059
0.03636143 0.41529939 0.02969199
0.02163075 0.27952553 0.01856392
0.04888748 0.55108282 0.04085138
0.0197642 0.25943726 0.0482267
-0.02993897 0.03840480 0.02228037
0.01273901 0.16327846 0.00094165
0.02044055 0.21969175 0.03252187
0.05345924 0.57540405 0.05233872
0.06316009 0.68011239 0.05831302
-0.03025234 -0.18556571 -0.03538755
0.04487889 0.48325071 0.04475643
-0.03398052 -0.15609154 -0.04586888
0.04662152 0.50074778 0.06045583
0.01858058 0.03415595 0.0239107
0.01314751 0.18631240 0.04119503
0.02216493 0.28470637 0.03123392
0.05197217 0.60960668 0.04728651
0.02504723 0.29270772 0.00353277
0.06862772 0.73943886 0.05323782
0.06189719 0.71777695 0.06210515
0.04208232 0.47724205 0.04931188
0.01387428 0.17140649 0.0361588
0.02731065 0.31714625 0.0300067
0.0202664 0.24073791 0.03359249
0.0361922 0.43785121 0.029141
0.04062611 0.46144533 0.05053896
0.03794325 0.45799227 0.01959677
0.03091822 0.35623233 0.03769644
0.02410913 0.28255225 0.00624939
-0.00174492 -0.17125281 -0.07395054
0.01550709 0.16589957 0.00995906
-0.01351895 0.03640334 0.07058898
0.00764502 -0.08762910 -0.00347683
-0.0029731 0.03589985 0.0240636
0.00386948 0.03570092 -0.01876749
0.04667256 0.52696220 0.06150609
0.0142282 0.15188473 0.04545844
0.00509855 0.09875015 0.00863847
0.05857855 0.67957998 0.03560544
-0.01687021 -0.14905634 -0.03437309
0.02921259 0.33766794 0.05176794
0.01062336 -0.04345668 0.00582061
0.01345638 0.03817526 0.03448214
0.03041856 0.03299267 0.00702152
0.03125387 0.37169222 0.0089197
0.03710901 0.39937682 0.02902817
0.01391568 0.17201909 0.00442366
0.03446146 0.39827994 0.00768064
-0.03810256 0.03932516 0.00566149
0.03103448 0.35751423 0.03321187
0.06064033 0.68177139 0.02893694
0.04407729 0.49893572 0.03774273
0.0095743 0.12876272 -4.849e-05
0.05958544 0.66708994 0.04182192
0.00494109 -0.04272771 0.02131905
0.03079904 0.33142079 0.02940933
0.03691612 0.42165957 0.05925436
0.01643734 0.21446356 0.0552132
0.0550047 0.61736129 0.0535662
0.005529 0.10336839 0.02114001
0.01723579 0.02310009 0.02098173
0.01315079 0.14078135 0.01319035
0.0543393 0.61012505 0.05756712
0.00357659 0.03704944 0.04337016
0.04043761 0.03563370 0.03986909
-0.0059647 -0.15694679 -0.02953928
0.04804873 0.54211199 0.01666649
0.03062513 0.32861122 0.04936321
0.00508067 0.10104911 0.05138332
0.03089967 0.38054644 0.02359377
-0.02238367 0.03751526 0.04138695
0.05767441 0.62123181 0.04682417
0.00244713 0.07187356 0.04965814
0.01671644 0.01348237 0.02636618
0.01925582 0.25296048 0.03608063
0.00997807 -0.16138528 -0.04421297
0.0526439 0.56702035 0.04133082
0.02553943 0.03305663 0.04525508
0.01469958 0.18031449 0.04362569
-0.00849627 0.04009293 0.04515303
0.00453115 0.09460690 0.0501488
0.02282563 0.26851115 0.02944342
0.0407458 0.03552245 0.00352089
-0.03284792 -0.16397043 -0.03659707
0.01870577 0.22397410 0.00187222
-0.03189568 -0.18533132 -0.03715471
0.06912426 0.74791351 0.05711174
0.03543398 0.42928754 0.04325292
0.02052319 0.26913486 0.05475457
0.01262098 0.18300111 0.05236283
0.05043112 0.54303965 0.0475519
0.03037216 0.32682871 0.03157499
-0.01702515 -0.18281862 -0.02740683
-0.01524604 -0.16732749 -0.07613265
0.0378901 0.43190198 0.02514125
0.00290659 -0.10551640 -0.00767378
0.00787575 -0.15433714 -0.05424108
0.04804337 0.56733998 0.0300572
0.04190233 0.45073942 0.02672081
0.02314902 0.29541664 0.03530941
0.0278285 0.29795383 0.05133313
0.0146441 0.20317448 0.01553656
0.02659452 0.30945726 0.01524958
0.0394468 0.42465786 0.04429052
0.01178709 0.12612899 0.01234737
-0.00940552 -0.09508515 0.00982221
0.00149497 0.03722529 0.02232336
0.00347617 0.04877312 0.00021746
0.01305645 0.16273617 -0.00264605
-0.03223244 -0.19039583 -0.06005729
0.06186865 0.69185502 0.04105121
0.00961179 -0.00427938 0.00850413
0.00517923 0.09952031 0.02523998
0.01926148 0.20693082 0.04037177
0.05330043 0.59884810 0.06009885
0.01630938 0.20767034 0.05509004
0.02341779 0.29873468 0.04596087
-0.00101845 0.03966572 0.01911111
0.00355643 0.03754175 0.03654422
-0.01953932 -0.14783623 -0.0184204
-0.02598213 -0.14628185 -0.05591999
0.0225768 0.29134944 0.0544908
-0.01346351 0.02325480 0.02254759
0.04618591 0.52169803 0.05878518
0.03560861 0.43229331 0.02140502
0.03529441 0.37824462 0.05375697
0.00346977 0.03519286 0.03523716
0.00379746 0.06208463 0.0439973
0.03681682 0.42031476 0.01490589
0.03164324 0.36418351 0.02033937
0.01278829 0.13687492 0.01466545
-0.01277422 -0.16805452 -0.02961099
0.00711278 0.03848169 0.06212479
0.04199468 0.45868047 0.01588911
-0.02463652 0.03787118 0.02669209
0.03508214 0.42606691 0.05064919
0.02655762 0.03284221 0.0572093
0.0443427 0.50174517 0.051747
0.04028489 0.48223586 0.03917222
0.00869984 -0.03876997 0.02312779
0.02561141 0.32302724 0.04860015
0.03312832 0.40548437 0.01769377
0.01509306 0.00532371 0.01705323
0.01818748 0.21822369 0.02712767
-0.01171368 -0.14397075 -0.03977008
0.00429782 -0.07621678 0.01228923
0.05067138 0.59541416 0.04395647
0.05002654 0.56333029 0.06170522
0.01490662 0.20659630 0.04785767
0.05677721 0.64435548 0.02703585
0.02977041 0.32028080 0.04209495
0.01049826 0.11243985 0.03341773
-0.02406696 -0.18041656 -0.02893494
-0.01326523 -0.00040908 0.0302008
0.04555961 0.53978327 0.03606075
0.04656648 0.55153781 0.05950194
0.0028982 0.06864137 0.00213931
0.05002712 0.56340534 0.04839269
0.00748 0.10223085 0.00379327
-0.00903465 0.02727243 0.01449928
0.056143 0.60401645 0.05806626
0.02069324 0.26873848 0.04410464
0.06168279 0.71543096 0.06673469
0.04940178 0.58226981 0.06181284
-0.01215793 0.03848955 0.02831507
0.04767955 0.51321226 0.03049928
0.03418314 0.41672618 0.01963021
0.0156486 0.19074691 0.01641916
0.02243379 0.03334128 0.04543564
0.00857369 0.03836824 0.06001082
0.05687015 0.66306072 0.0414909
0.04429625 0.03243608 0.02563414
0.03446704 0.39467947 0.04575962
0.020675 0.24520268 0.02661607
0.05823608 0.65240806 0.05255532
0.01181257 0.14898594 0.04899103
-0.01132026 -0.00852609 0.00758119
0.01339195 0.14367899 0.02877607
0.00555441 -0.05835528 0.01904061
0.03665628 0.03319925 -0.00481733
0.01643975 0.03819437 0.00531039
0.03391543 0.36462677 0.0244581
0.03187432 0.36662337 0.03290161
0.05971234 0.66031136 0.02880881
0.0364405 0.03203797 0.04663471
0.00679738 0.11712383 0.03345425
0.03439541 0.41884989 0.02295617
0.01439734 0.19998462 0.03564946
0.01173812 0.12352995 0.00679926
0.0404682 0.48535612 0.02010478
0.05973076 0.64559021 0.03254782
0.00598636 -0.18969890 -0.05815951
0.04767553 0.51293480 0.05070333
0.03932983 0.47306120 0.05864832
-0.01795692 -0.02418264 0.01759491
0.04032078 0.46798654 0.01372318
0.02232128 0.03784702 -0.01402157
0.04703571 0.53090923 0.06018547
0.0612857 0.71115273 0.06066816
-0.00129077 -0.16660099 -0.03859043
0.0384704 0.43476846 0.00945782
0.04280936 0.51041151 0.05405705
-0.03188684 0.04247704 -0.00723603
0.01779064 0.19092170 0.02146373
0.06302413 0.73005530 0.04793685
0.05913983 0.66221900 0.04998064
0.04943317 0.53237075 0.04458367
0.05060572 0.54395316 0.06096344
0.0498716 0.58675339 0.04068494
0.0310977 0.33296661 0.05286144
0.06180128 0.69106772 0.05329125
0.04175971 0.47366765 0.06034271
0.0187722 0.22461259 0.01812331
0.04719747 0.55719331 0.02516882
0.02696063 0.31336865 0.02645854
0.03945341 0.44893272 0.01018964
0.00835731 0.08930618 0.01477852
0.0105435 -0.00933825 0.00876427
0.01470135 0.15767966 0.0212886
0.06260217 0.69101163 0.0332397
0.03444151 0.41912549 0.02502817
0.00997854 0.15197594 0.0428312
-0.01227173 -0.01053327 0.0078745
0.06081405 0.68031085 0.06317517
-0.02680819 -0.11932068 -0.02146184
0.06167626 0.71534022 0.07034176
0.0244724 0.26268897 0.01869031
0.06121421 0.65938475 0.03822504
0.0171944 0.20482219 0.00179106
-0.01862075 -0.03723746 0.00769705
-0.02317834 0.03804154 -0.0035474
0.01599392 0.17171384 0.03481198
0.02704555 0.33546205 0.05751244
-0.01141553 0.02567669 0.01729931
0.01339717 0.14367224 0.0404647
0.02748571 0.31906559 0.0259264
0.0444852 0.52834298 0.05124429
0.03507083 0.37787032 0.05836348
0.01998212 0.21473111 0.03541247
0.05980548 0.69496500 0.04848466
0.05570592 0.59987474 0.04876003
0.00572396 0.08320813 -0.00138088
0.02271781 0.26748407 0.0010401
0.02455991 0.28730044 0.03327567
0.00025508 0.04580885 0.02871042
0.0310571 0.38260567 0.05153362
0.05758449 0.67098883 0.06605843
0.04443321 0.52815978 0.0272057
0.00652057 0.06953921 0.01561639
0.05159839 0.55472705 0.0590732
0.06215624 0.69486602 0.06312005
0.0647047 0.70758823 0.03747782
0.05887553 0.68487365 0.04445674
0.0331214 0.38009319 0.04320438
-0.01322051 -0.19796291 -0.03718719
0.00592408 0.06314025 0.02565415
0.00490071 -0.07912816 0.01008644
0.02198402 0.28268416 0.03760275
0.04266342 0.48359389 0.03960025
0.05033702 0.56690909 0.0206825
0.0391058 0.42100299 0.03806775
0.03642169 0.41584957 0.0511482
-0.01050144 0.03671705 0.0118965
-0.01518957 -0.16352316 -0.05060463
0.00723929 0.09937524 0.05304865
0.01722892 0.02405837 0.03031376
0.03338487 0.38302046 0.02957553
0.00901919 -0.17508373 -0.06276609
0.02447145 0.30977222 0.04173634
0.00082157 0.05194534 0.03667511
0.01043521 0.13412016 0.0343101
0.06070418 0.65342955 0.06808186
0.04001316 0.45498081 0.01386927
-0.02208473 -0.14364911 -0.04809572
0.057476 0.62947791 0.02833396
0.00794627 -0.08062248 -0.00426893
0.04045645 0.45337138 0.01201445
0.02559281 0.03731415 0.00893523
0.00632535 -0.08410999 0.00506023
0.01477498 0.03843799 -0.00362001
0.05769764 0.62087303 0.05866405
-0.0275857 0.03779308 0.06142114
0.05673326 0.61072545 0.05384475
0.04785445 0.53993144 0.03076176
0.03005761 0.34682851 0.05240785
0.00080634 -0.15993797 -0.04052027
0.02312118 0.27162891 0.04787452
0.05292663 0.62000964 0.04728409
0.03031225 0.37345447 0.04142444
0.00399264 -0.14887518 -0.05429258
0.04161429 0.47213200 0.05637565
0.04669014 0.55263353 0.05462842
0.06344441 0.68318901 0.05963298
0.01249128 0.00263850 0.0121927
0.03699307 0.03638189 -0.00284082
0.03651906 0.44120002 0.03663676
0.04009866 0.48120764 0.05499574
0.03321401 0.40675008 0.05678446
0.06586088 0.70935341 0.06771834
0.06195386 0.69273591 0.04990653
0.03005844 0.34702488 0.01471769
0.04015905 0.45644470 0.0376631
-0.01542837 -0.14515147 -0.06352855
-0.01074862 0.00481268 0.03119686
0.06117352 0.70992932 0.05658389
0.00080624 -0.14556046 -0.04816321
0.05550588 0.59783251 0.04773521
0.0605112 0.70271990 0.06819192
0.05692256 0.63829177 0.02689291
0.0030965 0.03752470 0.02153384
0.05821404 0.62696419 0.04939398
0.05752797 0.64476153 0.04620352
0.02346452 0.03364281 0.00613565
-0.02926955 -0.17748711 -0.07049842
0.04047325 0.48077117 0.06050276
0.0035096 0.03713956 0.01593934
0.01770196 0.03755025 0.05763994
-0.00623111 -0.20101649 -0.04660361
-0.00217346 -0.15775907 -0.02954095
0.06263344 0.72577212 0.05996505
0.01255926 0.18061612 0.00908212
0.06613506 0.71235679 0.06114739
0.04501108 0.53373626 0.04122505
0.04299612 0.51292973 0.02279888
0.01491136 0.20573453 0.04319856
0.01385592 0.19554945 0.0495167
0.00863933 -0.15555336 -0.05354958
0.03218324 0.34631611 0.04058689
0.0118451 0.03811530 0.05516483
0.00242391 0.04736217 0.01027244
-0.0180286 -0.15359864 -0.02081615
0.05368316 0.60300147 0.05944887
0.02723115 0.29237161 0.01907633
0.02542012 0.29677971 0.00450043
0.0006847 0.05060390 0.0136406
0.06622552 0.73897646 0.06602431
0.03251056 0.34988499 0.0305189
-0.01973846 -0.05904140 0.01194898
0.02990794 0.31987983 0.05366967
0.02644875 0.28239984 0.05299859
0.01834751 0.21992533 0.03426947
0.01308694 0.18570671 0.03345456
0.02469735 0.28872869 0.04647437
0.03684737 0.41492303 0.00915573
0.01801625 0.03783414 0.0266098
0.00928091 0.14423700 0.02703294
-0.00547481 -0.09126575 -0.02297996
0.02954381 0.31704150 0.01699326
0.0431782 0.46490582 0.04289542
-0.01409599 0.04093254 0.01310738
-0.01379116 -0.16557421 -0.07606907
0.01268745 0.15860714 0.02174383
-0.01957178 -0.04427175 0.01448996
0.03136066 0.37337546 0.00910559
0.03558347 0.40824105 0.00705522
0.03158884 0.34332642 0.0099996
0.05649563 0.63598290 0.06831868
0.02955379 0.36592403 0.04949015
0.05294742 0.62031222 0.0492095
0.02769942 0.32144102 0.01494841
0.0041488 0.06616324 -0.00287718
0.02589632 0.30185158 0.02198228
-0.00823889 -0.14386305 -0.01528321
-0.0216655 0.04163314 0.01281395
0.00906509 0.11939891 0.00781687
0.01788352 0.19184762 0.04300374
0.03029837 0.32558331 0.02296191
0.01981766 0.23604286 -0.00064326
0.02371569 0.30394727 0.00978586
-0.00377948 0.03630053 -0.00828691
0.06698173 0.74786612 0.04884252
0.03331848 0.38230474 0.02878404
-0.04062332 0.04251207 0.03225026
0.03225992 0.37088648 0.01721276
0.05835721 0.62851169 0.05002393
0.04656903 0.50151163 0.03751917
0.05603278 0.62863478 0.02836946
-0.03320238 -0.18137476 -0.06555156
0.05891684 0.66084787 0.02617899
0.00853878 0.09124716 0.01968416
0.05180761 0.55716795 0.05544814
0.05503283 0.61445493 0.06669704
0.03204683 0.39336355 0.02111164
0.02880696 0.33345653 0.01378731
0.05601453 0.65399885 0.05880517
0.02619195 0.29743092 0.05677495
-0.00829391 -0.00175493 0.00708769
0.04721404 0.52141269 0.01836152
0.00954021 -0.05210592 0.01558659
-0.00602343 -0.09963830 0.00759176
0.02245454 0.23948899 0.05176473
0.04712304 0.55677166 0.04767024
0.03052687 0.34101203 0.00798224
0.05920719 0.66290269 0.0598291
0.0032102 0.07800666 0.03379974
0.003468 0.08084402 0.02856913
0.04829432 0.56947994 0.04561996
-0.00371656 -0.06467115 0.02132086
0.01353969 0.19068626 0.02493764
0.01612213 0.17307918 0.02261439
0.02284087 0.24330766 0.05269339
0.00778771 0.10540476 0.03528791
0.04108807 0.49194952 0.05447236
0.03028018 0.37310025 0.04247638
0.01365978 0.03784717 0.06515035
-0.02007059 0.04151218 0.01023866
-0.0243678 -0.10177850 -0.01705321
0.03709007 0.39811482 0.05274071
-0.0186541 0.03695051 0.0632887
0.01487472 0.20556902 0.04461791
0.02684126 0.28853849 0.02441264
0.02614417 0.28067452 0.01935119
0.02155613 0.03385626 0.00242812
0.00644991 0.06882989 0.02240359
0.03889713 0.46704952 0.04231848
0.05404001 0.58135581 0.05585465
0.03137993 0.37822318 0.0109909
0.00532264 -0.18147687 -0.0359455
0.05269657 0.58762870 0.06493729
-0.00850243 0.00775681 0.0096485
0.03013693 0.33203031 0.05744817
-0.03246799 0.04222357 0.05300797
0.01091117 -0.03948323 0.00681113
-0.00012307 -0.14760930 -0.04412052
-0.02773191 -0.14774488 -0.0272726
0.0321633 0.39470480 0.01880002
0.04951693 0.53322993 0.03387242
0.02690046 0.31271052 0.02753133
-0.01851544 -0.12938863 -0.01241742
0.06418085 0.74247439 0.07521109
0.01238266 0.15516639 0.04919423
-0.0338562 0.03882105 0.0168323
0.02361961 0.29081744 0.0064997
0.04156698 0.47174799 0.03039276
0.01584934 0.19278167 0.04543068
0.01997886 0.23770217 0.01737435
0.04594286 0.54413290 0.06265343
0.00253784 0.04854633 0.02018805
0.02972864 0.36729314 0.05814366
0.01054536 0.13549058 -2.76e-05
0.00668939 0.07133023 0.0377772
0.04252513 0.45787045 0.04117943
0.05875634 0.68046426 0.03544998
0.01924734 0.20582374 0.04706154
0.06365991 0.73686336 0.06848986
0.0041892 -0.08776190 0.00670244
0.00186397 -0.13576557 -0.03466378
0.0380605 0.43376092 0.02328669
0.00877661 0.11628559 0.00477365
0.05517156 0.64450978 0.04287497
0.01232614 0.13183166 0.04286894
0.01038032 -0.15960053 -0.05033086
0.04657555 0.55087797 0.03513118
0.01828896 0.03376409 0.04143937
0.03667601 0.41882150 0.00867106
0.06558129 0.70628796 0.07332779
0.05272125 0.56780523 0.0356418
0.00870726 0.11541397 0.02739455
0.00295335 -0.07723467 -0.01284825
0.00488004 0.09742874 0.04667328
-0.00374527 -0.04908440 -0.0072158
0.01498158 0.20636660 0.03338202
-0.00196065 0.03960530 0.03372013
0.00252716 0.07075016 0.01207858
0.02903237 0.31025952 0.00999318
0.06775024 0.75556780 0.05628136
-0.02387118 0.04165566 0.03072868
0.03101342 0.35743574 0.00408314
0.04294512 0.51122103 0.04038897
0.03003439 0.37123819 0.02222455
-0.02522922 0.03826861 -0.00730404
0.03801696 0.43331991 0.01713228
0.01839733 0.19762513 0.0374361
0.01030951 0.13291158 0.00317638
0.02128494 0.22740236 0.00699938
0.04171906 0.44759900 0.0572691
0.02636643 0.28306960 0.01851756
0.04559884 0.54073683 0.02882
0.06860568 0.73910100 0.07104576
0.0651328 0.72723809 0.04496528
0.01362149 0.14582057 0.01037663
0.03327377 0.38182108 0.02858435
0.06125758 0.68508544 0.06943885
0.00521209 0.07749112 0.03153988
-0.00217983 -0.09474613 -0.02302708
0.00683345 0.07024163 0.05053256
0.06484725 0.69856983 0.05189962
0.00754507 0.08038213 0.05285847
-0.0087532 -0.15052026 -0.01914941
0.00892977 0.13852827 0.00424477
0.00736848 -0.17103520 -0.06594562
0.06817005 0.73443068 0.06029935
0.02181403 0.03356736 0.02869913
0.00461293 0.09358192 0.04257992
0.00809081 -0.02620229 0.00397759
0.00522947 0.07777162 0.01320486
-0.00057456 0.03675426 0.03030067
-0.01154325 -0.08081485 0.01485529
0.03313563 0.03647746 0.0229314
0.04569012 0.52913544 0.06200471
0.06372103 0.73751607 0.0700402
0.01952885 0.23274681 0.03206732
0.06562463 0.73349181 0.03854615
0.00308165 -0.01759416 0.03380681
-0.01854101 -0.08209898 0.00996594
0.02683479 0.31206795 0.01423766
0.03953776 0.42908849 0.0147701
0.06609464 0.73764957 0.04822976
0.03211071 0.36196693 0.00758886
0.01364251 0.16883625 0.04817737
0.0062741 0.06348045 0.00540542
0.03048539 0.37616660 0.02225952
0.02723429 0.31628586 0.03685256
0.00987227 0.10423982 0.04737467
-0.0180996 -0.06643155 0.01141931
0.00319066 0.05547879 0.05007087
0.03999474 0.45468080 0.0338606
0.03470428 0.37275240 0.01928521
-0.00246614 -0.00964723 0.00755822
0.00370377 0.08360331 0.01359425
0.03311164 0.40395689 0.04397208
0.00348787 0.03689273 0.01978355
0.0319102 0.34271382 0.02018401
-0.0022197 -0.06650301 -0.01266722
0.01569857 0.16578574 0.05282397
-0.01326338 0.01697389 0.01856032
0.0375787 0.40885291 0.05899212
0.03995958 0.45439629 0.01487028
0.01771642 0.21305162 0.04063084
0.04553106 0.53972118 0.05179819
0.00823684 -0.02047136 0.0091507
0.06427036 0.69237216 0.04135532
0.00453278 0.03926479 0.0080829
0.01134257 0.01385001 0.01180643
0.02203906 0.03329406 0.05372526
-0.00843025 -0.16769654 -0.03083366
0.05451734 0.61219872 0.0287112
-0.01680146 0.04148285 -0.01673896
0.01962295 0.23369875 0.04657203
-0.01347104 -0.09198699 -0.0230818
0.05738722 0.64314416 0.06398702
0.00328754 -0.11342831 -0.02436855
-0.00813637 0.03844458 0.03299823
0.04589903 0.51879683 0.01736913
0.0426866 0.45926231 0.04821322
0.05626655 0.63106641 0.04872224
0.06801081 0.75828689 0.07653084
0.00831319 -0.04232399 0.01746057
-0.00533668 -0.19311785 -0.06792035
-0.01948011 -0.15823162 -0.02417651
0.00738673 0.03701345 0.03299008
-0.02251416 -0.15842100 -0.07168596
0.01973684 0.21211253 0.03036152
0.02993337 0.34443604 0.00524562
-0.00383321 -0.10208662 0.00572877
0.01217108 0.15305663 0.01197164
0.06290961 0.67762317 0.05276302
0.01249864 -0.02304836 0.02285742
0.0371665 0.42393274 0.0492992
0.00184568 0.04111787 0.00624402
0.02913306 0.03701317 0.00644122
-0.02372484 -0.19062484 -0.06906328
-0.00281017 0.04020851 -0.01831804
0.01127038 0.14322570 0.02425975
0.04463225 0.52999401 0.03056371
0.06847173 0.77246564 0.08194182
0.02574671 0.30025840 0.01617289
0.00383801 0.06254866 0.04028824
0.03039248 0.03309942 -0.00332428
-0.01897613 -0.13623823 -0.04016904
-0.02589793 -0.16909191 -0.02905663
0.01812834 0.19472677 0.03682641
0.05048653 0.59340783 0.04338681
0.00682592 0.03928368 -0.01476542
0.00948749 0.03501543 -0.00213986
0.04519677 0.48531460 0.05699251
0.0422779 0.45458370 0.05068524
0.06556134 0.75744339 0.0755249
0.05273051 0.61829367 0.05672197
0.05559643 0.64933899 0.05543089
-0.00942667 0.02057284 0.01335845
-0.00551201 -0.05172164 0.0223426
-0.02032641 -0.15625419 -0.03010968
-0.01159293 0.03708119 -0.01422693
0.04004901 0.47976301 0.04715275
0.02650899 0.28411352 0.04850284
-0.01474169 -0.07493841 -0.01018034
0.00543151 0.07980431 0.04412215
0.03096085 0.38150039 0.01970449
0.03836757 0.43709341 0.02286909
0.03416446 0.41651106 0.02086301
0.03435644 0.41913382 0.05728865
0.04839668 0.57059160 0.04589317
0.03133459 0.36064862 0.05795346
0.0211288 0.22694914 0.02279585
0.05309854 0.62201939 0.03669902
0.06325045 0.71348464 0.03487749
-0.00594413 -0.17857945 -0.07477644
0.01322978 0.18729819 0.02669107
0.02731492 0.31727906 0.012999
-0.01883974 -0.03425475 0.01561092
0.03326324 0.40594434 0.04684752
0.05460359 0.63859246 0.05542623
0.04516944 0.52797936 0.02069141
0.00349033 -0.09141645 -0.011487
0.002354 0.04663890 0.00417754
0.00562574 -0.17549578 -0.03440328
0.02331853 0.27391777 0.01774044
0.04017491 0.03571156 0.03454886
-0.0307179 0.04238996 0.02054665
0.03752189 0.40231619 0.01473767
0.0439292 0.47300830 0.04261377
0.05464602 0.58777648 0.05947252
0.05947775 0.69152938 0.06464665
0.01041497 -0.01407788 0.00816555
0.0010208 -0.10657810 0.00043216
0.06397008 0.71463979 0.04174597
-0.010582 -0.06069345 -0.01048175
0.02278162 0.28294408 0.05649558
0.04900455 0.52775771 0.03659105
0.00551613 0.10311578 0.03971992
0.06324042 0.73229588 0.07137825
-0.03244617 -0.18909991 -0.06117431
0.00412218 0.06565868 0.03426137
0.00559769 0.08185217 -0.00239297
0.03988499 0.45355851 0.02112126
-0.01300586 0.04092395 0.0039922
0.02810918 0.32567181 0.05708859
0.01554292 0.17411630 0.05448639
0.01101369 0.14346919 0.00013631
0.00257228 0.03742329 0.0363697
0.04312655 0.51330894 0.04757139
-0.04060666 0.04279668 0.01464028
0.0498522 0.57139753 0.02162821
0.00040149 -0.17993637 -0.07144132
0.0274228 0.29499502 0.0351022
0.05928462 0.66380764 0.04681594
0.00328402 0.01087709 0.0395614
-0.01211315 0.01324571 0.03214028
0.01108506 0.03417607 0.06645316
0.02088032 0.27072575 0.0265845
0.00102869 -0.19106872 -0.06475029
0.02138193 0.22944000 0.04449973
0.06494088 0.72927940 0.03819762
0.0112803 0.16640519 0.01596747
-0.0243326 0.04016991 -0.01604973
0.01989078 0.03724723 0.06768545
0.05674287 0.61052127 0.05832561
0.01870797 0.24839761 0.05093687
0.01508229 0.18441881 0.0541599
0.0168531 0.03815281 0.00565213
0.01372732 0.19328411 0.04557022
0.049796 0.57649409 0.06430333
0.05839122 0.65401404 0.06717189
0.00809092 0.10863602 0.04749666
-0.01365765 0.04064438 0.03766945
0.01528266 0.02635133 0.01659217
0.05317838 0.59758827 0.04690462
0.00143075 0.05875592 0.01024997
0.00205819 0.06510513 0.0071728
0.02480226 0.28996771 0.02533704
0.06597093 0.71075978 0.04851572
-0.02385501 -0.14771816 -0.05226332
0.03838672 0.43718341 0.04650161
-0.01284121 0.04062617 0.03201067
0.03686428 0.39604097 0.02146395
0.02632722 0.33206446 0.05717866
-0.00978313 0.03630010 0.04666811
-0.02520391 0.04159452 0.04896601
0.03402153 0.36577477 0.0245312
0.03382843 0.36406853 0.03950348
0.02127084 0.03772224 0.00795581
0.00434309 0.06817157 0.01072811
0.02570133 0.29982612 0.00498438
0.0051729 0.09945739 0.02401597
0.04747764 0.56069228 0.03719374
0.00530875 0.10095217 0.04144614
0.05072744 0.54635946 0.03912111
0.06789792 0.75708417 0.07207161
0.05026189 0.54043575 0.02457886
0.03664309 0.40743124 0.0106663
0.02253174 0.24217061 0.04262194
0.00245512 -0.06232209 -0.00906681
0.06394553 0.71425377 0.06579809
0.01055868 0.11281541 0.01142001
0.06532252 0.72815766 0.03623259
-0.01599035 -0.00296595 0.02235871
0.02903401 0.31177023 0.01915186
0.02724139 0.31652752 0.00498172
-0.00457384 0.04006751 0.01179482
-0.0028055 -0.16905497 -0.03749852
0.03634521 0.39120620 0.04148667
0.02340657 0.25169428 0.03100817
-0.00685292 -0.05761825 0.02035391
0.03629893 0.41454258 0.04648511
0.03015507 0.32288243 0.05246718
0.02136963 0.03777741 0.00158087
-0.01939486 -0.04937426 0.01475757
0.04962405 0.58403741 0.04146154
0.01844606 0.22109536 0.01424703
0.03932325 0.47209609 0.04934158
0.05396557 0.58055053 0.05542724
0.04000816 0.42970248 0.0194396
0.00071329 -0.17433191 -0.02984528
0.02273833 0.24351235 0.01256026
0.03825303 0.46058942 0.05110862
0.02365586 0.27747292 0.03826983
0.03650024 0.41363323 0.00860802
-0.00618037 -0.14952542 -0.06757555
0.06919913 0.77118366 0.07429743
0.0213128 0.24578986 0.05579606
0.00309989 0.07967943 0.05165327
0.04606934 0.54614035 0.06037193
0.02820064 0.32667313 0.05588029
-0.00184666 -0.11300454 -0.00418153
0.00046431 0.04241381 0.00320869
-0.02779135 0.04178574 0.0536504
0.00577625 0.03559249 -0.02544451
0.03673701 0.41932784 0.03905213
0.00625706 0.11442932 0.05328807
0.02963969 0.36798662 0.05767936
0.0385553 0.43919899 0.009334
0.04656798 0.52591020 0.04508583
0.00579021 0.10640270 0.01481842
0.02613758 0.30455700 0.00506378
0.04511297 0.50606823 0.01460521
0.01830851 0.19637362 0.01668676
0.04758927 0.56238902 0.05469025
0.05485918 0.60696386 0.06620781
0.0671616 0.74908662 0.07488784
-0.01520074 0.00043072 0.02588688
0.05213577 0.56104276 0.02929364
0.02305255 0.27086927 0.05034214
0.05048059 0.54259993 0.06001645
-0.00949097 -0.16686087 -0.04629548
0.01413049 -0.01116279 0.02403313
-0.00398529 -0.15563430 -0.0255291
0.03951441 0.44053934 0.01217064
0.05583577 0.62638379 0.05110169
0.05765236 0.63130459 0.02853476
0.05740221 0.65349312 0.02879114
0.03478677 0.42370124 0.05565021
0.00698524 0.03717561 0.02059297
0.06927418 0.76831629 0.08189532
-0.01997373 -0.11307529 -0.03083529
0.06649395 0.74196926 0.05025356
0.05775326 0.67283725 0.06220226
0.06615525 0.71255735 0.06564548
0.01517137 0.20844824 0.03097448
0.01906887 0.22766493 0.0516617
0.04208069 0.45237726 0.01764473
0.01138394 0.16709782 0.03816444
0.04669889 0.55226510 0.04812618
0.01882167 0.20861609 0.00522134
-0.01739608 -0.06503220 0.01091292
0.05193324 0.60119801 0.02642557
0.01631156 0.19792220 0.01925381
0.01111494 0.14152343 0.02754454
0.04135184 0.49384007 0.04072519
0.03020214 0.32271786 0.05505447
0.04363945 0.49423297 0.02860079
0.00016775 -0.14635722 -0.04299955
0.00560825 0.08189669 0.01003285
0.03027459 0.32577537 0.03174284
0.00856234 0.11379117 0.03824973
0.01929003 0.23034786 -0.00054997
0.00911104 0.09750062 0.02885194
0.06658679 0.71737543 0.05349513
-0.00167455 -0.16947449 -0.04015202
-0.00726853 -0.05213046 -0.00800083
0.00420246 -0.07528466 -0.01115226
0.06703045 0.74779074 0.04940302
0.04089745 0.44034122 0.03590598
0.00903751 0.14235551 0.04584592
0.0559399 0.65285176 0.04481925
0.04675039 0.50337898 0.03253533
0.04023823 0.43319694 0.04206678
0.02731487 0.29384425 0.03261818
0.04740196 0.55986794 0.03700313
-0.01922221 0.03705220 0.05839682
0.02012519 0.23940244 0.00046984
0.03250176 0.34959369 0.04479063
-0.00846719 0.03998975 0.05511756
0.00813805 0.10920998 0.03402557
-0.00732194 0.01463026 0.03465995
0.03300485 0.35491283 0.02530301
0.02589772 0.27857502 0.02936287
0.0346807 0.42193653 0.02325168
0.058716 0.65772538 0.02991968
0.03563579 0.40747055 0.02242844
0.05251142 0.59030203 0.05809667
0.00255844 0.07260271 0.04809627
-0.0074766 -0.14211087 -0.04636204
0.02745089 0.34298999 0.02216867
0.04692271 0.52976279 0.04325754
0.01588861 0.21625186 0.03442033
0.0530249 0.62125484 0.03590713
0.00170163 0.03756043 0.03073987
0.02287405 0.26892938 0.05204869
0.0483207 0.53514869 0.01885633
0.06403514 0.74098546 0.05687154
0.02383478 0.28131435 0.00361578
0.06266651 0.67505268 0.04978957
0.02115365 0.27488294 0.01331067
0.05313307 0.62018450 0.03000459
0.02727069 0.34036484 0.03440426
0.06737348 0.75138032 0.0756616
-0.02685116 0.04236492 -0.01230389
0.01592757 0.19380164 0.01058482
0.00744096 0.01946867 0.03765003
0.00904365 0.09419805 0.00509261
0.05341085 0.60013498 0.04105168
-0.03484474 -0.17591108 -0.06413958
-0.03509945 -0.17261677 -0.03807356
0.00036771 0.01680957 0.03728239
0.04704444 0.53113342 0.03343017
0.00506886 -0.15661597 -0.06441238
0.05554934 0.64873759 0.03758173
0.03292352 0.03659861 0.01287044
0.02368755 0.27793134 0.01543524
-0.03133041 -0.18461728 -0.03611818
-0.00893875 0.00351615 0.03529072
0.04774836 0.56357128 0.04212192
-0.02648144 -0.12747448 -0.02116311
-0.01628416 -0.01702831 0.01179043
0.01142462 0.17010045 0.05278622
0.01676125 0.22630122 0.01844987
0.0685827 0.76447949 0.0781922
0.04166452 0.49721472 0.04392141
0.00198875 0.06132979 0.00300592
0.01683044 0.17869953 0.05095607
0.0283863 0.30538420 0.03586534
0.01053148 0.13513300 0.0409596
0.02819326 0.30330766 0.03479093
0.03702035 0.42255735 0.00805787
-0.01857256 -0.14865209 -0.01828711
0.04668885 0.52730983 0.02712971
0.02023013 0.24043025 0.01673897
0.05711026 0.66570894 0.04039611
0.02784035 0.03660815 0.05837997
0.04337759 0.46629710 0.0516016
-0.00132902 0.03783361 0.03135472
0.04401452 0.03379754 0.01743595
0.01137196 0.12190757 0.02542681
-0.01991774 -0.18216670 -0.074214
0.05849011 0.62994705 0.04999758
0.00562152 0.10443221 0.04183609
0.00965178 0.12583242 -0.00130095
0.0080142 0.10781007 0.04599791
0.06209941 0.66855062 0.0698645
-0.00230257 -0.00974685 0.00749763
0.06994026 0.76924478 0.07720768
0.00602069 0.06258768 0.04699534
0.01164997 0.16874403 0.00524253
0.02112543 0.25020731 0.00402272
0.00048104 -0.00322996 0.03722581
-0.00846062 -0.04943132 0.02556081
-0.02133281 -0.14097765 -0.01588103
0.03954246 0.47506267 0.02364722
0.05914218 0.63710061 0.04599706
0.03493303 0.39973495 0.04458659
-0.00033713 0.03600112 -0.01008701
0.03262856 0.37493191 0.00749615
0.04247252 0.48149045 0.04673115
0.00357941 0.08480353 0.05137279
0.03433169 0.39326543 0.03436437
-0.00992301 -0.14174544 -0.04586187
0.01447407 0.03837771 0.00510697
0.01564431 0.19068680 0.01910425
0.04084013 0.48829308 0.04615347
0.0313348 0.38497416 0.02675898
0.02967367 0.34264810 0.05480473
0.06156838 0.68845038 0.07128382
0.05206732 0.56073932 0.03492786
-0.03661954 0.03892148 0.0321436
0.01911122 0.25132400 0.04238938
0.00850213 0.13877226 0.0533957
0.02165229 0.25575338 0.03654125
0.06309473 0.67937911 0.06307707
0.05028015 0.54996090 0.02206625
-0.02386609 -0.13341773 -0.03172116
0.04438835 0.52786561 0.02536476
0.05845379 0.65488521 0.02925828
0.02940574 0.31603603 0.02351475
0.02686692 0.33760509 0.05412953
0.00770647 0.10309181 0.05324207
0.0057497 0.03241559 0.01055316
0.02933991 0.31563540 0.04272171
0.03246104 0.35795258 0.00925308
0.01602359 0.17095565 0.04687417
0.00111369 0.05532417 0.01056128
0.00805272 -0.07127689 0.00849461
-0.00273146 0.01830999 0.03741947
-0.01633286 -0.14423485 -0.05198864
-0.01312316 0.02465880 0.02138781
0.0289691 0.35036937 0.00892726
0.00313868 -0.11775950 -0.02591495
0.04635619 0.50527871 0.01950092
0.05932188 0.66422542 0.04367578
0.06321986 0.70640345 0.06218008
-0.01613403 0.03736619 -0.00097626
0.05309258 0.62187883 0.04077221
0.02716722 0.34115112 0.05499623
0.04488647 0.53289346 0.05321939
0.02310577 0.24813575 0.02199498
0.04407883 0.03160850 0.01933479
0.01998445 0.21405162 0.00958087
0.00400871 0.03876695 0.06223587
