# .PCD v0.7 - Point Cloud Data file format
VERSION 0.7
FIELDS x y z
SIZE 4 4 4
TYPE F F F
COUNT 1 1 1
WIDTH 1414
HEIGHT 1
VIEWPOINT 0 1 0 0 0 0 0
POINTS 1414
DATA ascii
-0.00366758 -0.14810856 0.02600604
0.00645125 -0.23602131 0.02273011
-0.08554221 0.19414752 -0.03888755
-0.07631195 0.24020231 -0.01099163
0.02677821 -0.50993901 -0.0409694
0.00756114 0.29261394 0.08066259
-0.02854645 -0.50018450 -0.04204334
0.05244676 0.30472195 0.00790509
-0.10437676 0.17278200 -0.02126536
0.00401288 0.23950879 0.10342716
-0.00330796 -0.37799666 0.01262009
0.03732243 0.30570301 0.0603865
-0.0284048 0.09338977 0.03904609
-0.06931829 0.26322864 0.02637182
0.10365974 0.17278200 0.07132005
-0.07201546 0.22909556 0.07354987
-0.09646649 0.17494347 -0.03953844
0.09252264 0.17813957 -0.04384899
0.01595326 0.08638635 0.00792578
-0.02085235 -0.50993901 0.02084643
0.00427518 -0.50993901 0.00239695
-0.04818236 0.29139563 -0.01218594
-0.08638811 0.17449829 0.09714451
-0.02518446 0.18358004 0.12709574
0.09890558 0.20939488 0.02852617
-0.07085103 0.24151969 -0.01482742
0.00589434 0.06359775 0.04407791
-0.06885286 0.26424394 0.01789106
0.02535622 0.16895500 0.02133897
0.00256686 0.12777275 0.00532062
0.01924647 0.23491856 -0.05948
-0.00705396 0.09422110 0.0515494
0.00903091 0.10935032 0.02128388
0.10068191 0.20471690 0.01217985
0.04887141 0.30111995 -0.00517008
0.10981072 0.17278200 0.05327723
0.03925446 -0.50006374 0.07507862
0.03501824 0.22787544 -0.05742785
-0.03340179 0.28818837 0.06922584
0.01446683 -0.49710250 -0.02757277
0.08008368 0.23453940 -0.00420134
-0.00426865 -0.29964830 0.02522259
0.00608266 -0.02341947 0.02418511
-0.09001881 0.18282657 -0.04182991
-0.01950696 0.29770938 -0.02765695
0.08599609 0.22857920 0.03458088
0.0106095 -0.50993901 0.04337015
-0.0146994 0.03547285 0.01304512
-0.0405394 0.20329940 -0.06717047
0.07883085 0.17614438 0.10571309
0.0142682 0.13077802 0.01239496
0.0307502 -0.50993901 0.05993119
0.00299656 0.16205928 -0.00060163
0.08000687 0.19891742 -0.0391986
0.0075187 -0.49678842 -0.02753131
-0.04309706 0.25837612 -0.03539355
0.00900051 -0.50993901 0.04806487
-0.02584553 0.09155051 -0.00849495
0.04681961 0.25963259 -0.0364863
-0.06714237 0.18443700 -0.06092655
-0.0586377 0.19497131 0.10903754
0.0636907 0.23203119 -0.03479141
0.06311082 -0.49977415 0.03277818
0.0725759 0.17279134 -0.06838075
0.03679343 0.29549121 -0.01912317
-0.00505169 -0.08401335 0.02349308
0.05182974 -0.50319535 0.07538721
0.01153163 0.06798961 0.03507413
0.00928512 0.03325701 0.01084007
0.05186049 -0.50993901 0.04495894
0.04334718 0.08886762 0.02121522
-0.01072216 -0.50993901 0.04105136
0.06428923 -0.50993901 0.0313545
-0.08688586 0.23052035 0.03383428
-0.02045998 -0.50993901 0.04337826
0.00647671 -0.26116661 0.02153105
-0.0144105 -0.49637703 -0.0244219
-0.00376877 0.20940730 0.00515257
0.08607019 0.22759150 0.05016526
-0.06387405 0.21994311 0.08640037
-0.03951869 0.27850852 -0.02988924
0.00445747 -0.50993901 0.07230109
-0.07067631 0.25216166 0.0462523
0.00454539 -0.07758672 0.01765879
0.00845016 0.21598253 0.02935817
0.11371574 0.17699680 0.01095675
-0.04011529 -0.49719105 0.05338062
0.03065829 -0.49202533 0.04759066
0.01868638 0.23423402 -0.05987957
-0.00088462 0.08642300 -0.01800693
-0.01203696 0.20405499 -0.07495356
0.06503511 0.26195516 -0.00672258
-0.04833249 0.30301100 0.01124883
0.07934596 0.24065313 0.00268751
-0.06821084 0.24933934 0.0556848
0.00582047 -0.07047706 0.01925078
0.07314747 0.22503651 0.07201515
-0.02116856 0.16046773 0.02186484
0.07382586 0.18312610 -0.06127371
0.10082584 0.17278200 0.07408073
0.09554344 0.19164708 -0.01977327
-0.02568703 0.08642300 0.04649709
0.01440074 0.28307685 -0.04017512
0.06678033 0.22686910 -0.03476684
0.04072943 0.24918990 0.08777259
-0.05253831 0.30511293 0.01909555
-0.00482475 -0.00956307 0.02408591
-0.06931944 0.25789916 0.04245256
-0.06545903 0.22580213 -0.03566631
0.10556388 0.19281323 0.00622259
-0.05817147 -0.50993901 -0.00672364
-0.02498525 0.08642300 0.00545466
-0.05465866 0.28593754 0.04326911
0.01133992 0.16895500 0.00982194
-0.05615369 -0.49874424 0.02548652
-0.03261008 0.09348198 0.02139699
0.04460099 0.30349616 0.0024032
-0.0039427 -0.50913348 -0.37966535
0.01740144 -0.50993901 -0.02371715
-0.08791341 0.22480085 0.02406731
-0.07673831 0.20327275 0.08255862
0.09294293 0.19045090 0.07165286
0.04976022 0.23956552 -0.04616704
-0.02231451 -0.51062602 -0.29107299
0.06729639 0.27440845 0.03356039
-0.00310782 -0.07883113 0.02651577
-0.00504247 -0.27957076 0.02050772
-0.05556648 0.23365229 0.08465951
-0.09913615 0.18729707 -0.01340982
0.06591905 0.21198827 0.09057387
-0.04564629 -0.50972431 -0.03506703
-0.02211625 0.08720141 -0.01398999
-0.06191916 0.24949824 0.07089102
0.03375701 0.25416247 -0.04452256
0.04511749 0.26409022 0.07554204
0.04457447 0.22367856 -0.05881275
0.01431038 -0.50021849 0.09257486
-0.08130176 0.22360978 -0.01168405
-0.09126671 0.17993662 -0.04244402
-0.07910086 0.24137109 0.04694372
-0.02184875 0.25417293 0.09305221
0.05034443 -0.50017397 -0.02801067
-0.06662736 0.20326245 -0.05384829
0.02355111 0.19817451 -0.07938426
-0.06656917 0.24611324 -0.02332813
-0.10334819 0.17466739 -0.02653895
0.06432248 0.27423881 0.03412295
-0.05089808 0.26876940 -0.02618756
-0.00577855 0.17644169 -0.09190275
-0.07663807 0.24448736 0.03853355
0.03716636 0.29748877 -0.01764869
0.06828663 0.26878659 0.02372179
0.07410674 0.24879598 -0.00877278
-0.00182039 0.08642300 -0.01867578
-0.03489293 -0.50993901 0.00218713
-0.06388399 -0.50993901 -0.00533109
0.08745535 0.19048653 -0.03602716
0.04006391 0.27374434 -0.02955003
0.0734359 -0.50136189 0.03215428
-0.02940784 0.25635450 0.09200539
-0.05529673 0.20069040 0.10447406
0.00266597 -0.45615968 0.01308449
-0.00270661 -0.46644759 0.03557212
0.06348858 0.22903217 0.08150585
-0.01450355 0.08689004 -0.01762501
-0.00439267 0.24521830 0.10347353
-0.04260931 0.18819700 0.12135278
0.06698577 0.26094663 -0.00325705
0.09202865 0.17714556 0.0893898
0.02058455 0.05814123 0.0210627
-0.06387668 -0.50993901 0.0538026
0.01202169 -0.50993901 0.01097258
-0.06700962 0.27511252 0.0205468
0.01491378 0.26624790 0.09224495
-0.00457892 0.27892888 0.08442188
-0.01255102 -0.48354476 -0.00206319
0.00584994 0.09669646 -0.00010605
0.02173321 0.22237214 0.11223179
-0.05188412 0.28897331 -0.00209651
-7.924e-05 0.30405432 0.07031968
-0.05691793 0.28237369 0.04993292
-0.08110856 0.17926035 0.09547843
0.02464147 -0.48297524 0.03403162
-0.04969332 0.29976429 -0.00180158
0.05782864 0.29421986 0.01028303
-0.10705895 0.18712532 0.00662245
0.00416032 -0.16019499 0.02670494
-0.05697445 0.24632028 0.07494361
-0.00528418 -0.45391509 0.02815296
0.08487438 0.17564081 0.09502624
0.01807669 0.08642300 0.00594055
0.00637806 0.22439783 0.11030859
0.00577037 0.07400885 0.00823375
-0.00406418 0.12400592 0.03799078
-0.08411338 0.17877731 0.0967918
-0.01296256 0.19296606 0.12721727
-0.01911931 0.09384359 -0.00274536
0.05208292 0.21437863 0.0997688
0.08238849 0.24209765 0.03574804
0.07289461 0.24311615 -0.01870316
0.00246323 0.07646890 0.03660223
-0.07194827 -0.50152381 0.03358275
0.0103787 0.10073288 0.01187345
-0.05034501 -0.49741331 0.00954541
0.07816206 0.22256008 0.07225481
-0.00148279 0.05788456 0.0415255
-0.03422361 0.17827095 0.12989639
-0.0235958 0.26670579 -0.04499897
0.09011471 0.20571379 0.06738036
-0.03346693 0.08642300 0.01613295
-0.01031791 0.17320248 -0.09284693
0.00420612 0.26885349 0.09241426
0.11293378 0.18156867 0.02257796
0.05112451 0.25578286 0.07959973
-0.03056236 0.26889465 -0.0409956
-0.00141541 0.09361659 -0.01052517
-0.01320053 0.06280481 0.00060349
0.02146658 0.26173507 0.09307046
0.01282516 0.14151397 0.03162811
0.09337024 0.21856882 0.03740331
0.03603767 0.09281474 0.01826714
0.10632163 0.19495612 0.01972748
-0.00667255 0.09181158 0.06077386
0.05131791 0.21593889 -0.05902648
-0.04385894 0.27210875 0.0744925
-0.03530077 -0.49996303 0.07580562
0.02657066 0.05999314 0.01605733
0.00628253 -0.00673424 0.02370258
0.11273436 0.18021491 0.01513829
-0.11249144 0.17278200 0.01689557
0.03874541 0.26570547 -0.03534391
-0.05294392 0.25115191 0.07626212
0.04077092 0.28803417 -0.02423268
0.00217997 0.26214722 -0.05174704
0.10505867 0.18399422 -0.00623881
-0.0671199 0.20844342 -0.05038838
0.08467486 0.19957211 0.08158793
0.007773 -0.38764913 0.01906467
-0.02046562 0.29576692 -0.02825208
0.00294518 -0.50460202 -0.20666588
0.01557506 0.09949887 0.02735772
0.07113358 0.24548285 -0.01231333
-0.04524943 0.27557760 0.07136213
0.08157867 0.20816141 -0.03483768
0.10587657 0.19623353 0.02096514
-0.06553738 0.25551171 -0.01040032
-0.04220652 0.28234823 0.06594392
-0.0968093 0.20185870 -0.00879296
0.01316911 -0.50993901 0.08519526
-0.0088058 -0.51082039 -0.36606855
0.0603463 0.27622905 0.05228873
0.09675456 0.19082544 0.06971091
-0.06879319 0.24897328 0.05473035
-0.03852784 0.27740138 0.07170929
-0.00108063 -0.29649070 0.01642682
0.00768457 0.16474143 0.01929008
-0.004799 -0.08542536 0.01992034
-0.02902208 0.26702135 0.08671647
-0.05951062 0.28188234 0.04427953
-0.00636824 0.09156426 0.06175556
0.00681972 0.06151822 -0.00390924
-0.10466227 0.18148673 0.05136094
-0.00323947 0.27941183 0.08734903
0.02405342 -0.48794391 -0.0014585
0.07489003 0.24309065 0.05032117
-0.0332652 0.08642300 0.04614531
0.01500699 0.12234014 0.02931173
-0.00980267 -0.39863206 0.02486475
-0.01067204 -0.50993901 -0.04279788
0.08954564 0.18511310 -0.0423226
0.01574765 0.19013471 0.02435246
-0.03887963 0.30383856 0.0493828
-0.06407146 0.22633342 -0.04191728
-0.10650278 0.18579008 -0.00243078
-0.06766574 0.18242127 0.10957561
-0.05825213 -0.50579925 0.06598312
-0.04617992 0.21155262 0.10794363
0.09927355 0.17278200 -0.03144057
0.07038473 0.22333054 0.07693839
-0.01551139 0.15351516 0.02806488
0.05444889 0.22777381 -0.04958359
-0.03320731 -0.50993901 0.03817607
0.00578447 -0.50460202 -0.20479282
0.10525654 0.19561283 0.03011576
0.04793249 0.27282863 0.06782619
-0.05223296 -0.50019327 0.06928725
0.0115113 0.09878888 0.00844861
0.0531559 0.22460187 -0.04873721
0.0275996 0.29103917 -0.03143512
-0.08670274 0.22786015 -0.00071855
0.06232789 0.24174159 0.07802053
-0.06466757 0.27122476 0.01134198
-0.00247911 0.08642300 0.0605183
-0.04675842 -0.49721690 0.04218956
-0.00593845 -0.50460202 -0.20483243
-0.05664563 0.23267146 0.0881403
-0.06977955 0.20580232 -0.04554031
0.05559474 -0.49999637 0.05680805
0.11016944 0.17278200 0.04609598
0.00486558 -0.43372668 0.0257011
-0.0620259 0.21009994 0.09743856
0.00551546 -0.41141701 0.01617123
0.02151957 0.06347307 0.01270244
-0.04916335 0.24952278 0.08013215
-0.04982301 -0.50030327 -0.03186224
-0.05720634 0.21912255 -0.04791766
0.04594683 0.17330064 0.12810375
-0.00366411 0.25400698 0.09640524
0.06356889 0.27519901 0.00775216
-0.00656828 0.11364270 0.01380416
-0.01335291 0.06546350 0.00859071
0.09170473 0.19431155 0.07650433
-0.01631933 0.15873003 0.03343646
-0.00133181 -0.50398802 -0.05182315
0.06819157 0.26534379 0.03689494
0.01114923 -0.49680793 0.07118888
-0.07995933 0.22160334 -0.01739943
0.08500547 0.19693167 -0.03422342
0.02205705 0.28971451 0.0753346
0.00173949 0.08642300 0.05329753
0.00708322 0.15074684 0.00701641
0.00645623 -0.31940078 0.02137569
-0.0109319 0.06084415 0.04594899
-0.05598261 -0.50993901 0.05123423
-0.06452357 0.25367145 -0.0151174
0.04891811 0.28048629 -0.01647884
0.06468547 0.27659231 0.02285259
0.02691998 0.06026774 0.02571684
-0.03048857 -0.50993901 -0.02338132
0.00272411 0.15159477 0.03851297
0.01431039 0.08210701 0.01272696
0.03218217 0.19888184 0.12073773
-0.06382061 0.27426074 0.01588462
-0.08202175 0.19239343 -0.03998107
-0.0009966 -0.50460202 -0.18856779
0.06060975 0.28299771 0.01347356
0.00243294 0.06271654 -0.0039164
-0.10206999 0.19518363 0.02362151
0.02460636 0.27420128 -0.04127572
-0.05317025 0.27084703 0.06088723
0.04542463 0.28540409 0.06134538
0.07015399 0.25810150 0.05096468
-0.05789324 0.29398899 0.02457547
0.01970364 0.26699092 -0.04698935
0.02464033 0.08987652 0.05711872
-0.05294809 0.24421711 -0.03998276
-0.05684947 0.29468502 0.0141378
-0.05667889 -0.50993901 -0.01179582
-0.01578995 0.28610233 -0.03832376
0.09723124 0.21243353 0.01386974
-0.05870209 0.23595013 0.08073145
-0.01525478 0.06370150 0.00616249
0.08440966 0.19210720 0.0877206
-0.03118076 0.25975547 0.08953382
-0.04662494 0.26288178 -0.03000647
0.03015843 -0.50993901 0.01474189
0.09807549 0.19151111 -0.02155077
0.00096279 0.05998735 -0.00448561
0.00894633 0.21721226 -0.07224527
-0.0353953 0.23089571 0.10252996
-0.00403317 0.23492681 -0.06429331
-0.08316798 0.23127446 0.03670714
-0.06482114 0.22027361 0.08924199
-0.07066184 0.24788529 -0.01515709
-0.0394534 0.17543444 -0.08033735
-0.03516675 0.28586072 -0.02885526
-0.07412896 0.25740990 0.03351082
-0.03341017 0.28273244 0.0761903
-0.00462423 -0.02371848 0.02457001
-0.00060664 0.21671125 0.11754132
-0.06676779 0.24121497 0.07099351
-0.03647407 0.27673632 -0.03327984
-0.02019577 -0.48057377 0.00910961
-0.00437892 -0.42210635 0.0244681
0.08755718 0.22679230 0.01494444
0.05324755 0.26562769 0.06648174
-0.01733631 0.25143370 0.09583014
0.05070104 0.20151507 0.11172252
0.06117798 -0.50993901 -0.00489707
-0.00547376 -0.50829175 -0.13610772
-0.1011643 0.18989244 0.05716206
0.0537085 0.25722563 -0.03263173
-0.05785936 0.24906221 -0.02753829
-0.05087584 0.29845749 0.00716511
-0.0431119 0.26259329 -0.0365993
0.09016732 0.22233798 -0.00262692
0.0233938 0.17287488 0.12978408
-0.02461657 0.08642300 -0.00260511
-0.03731038 0.21365552 0.11054316
0.02143896 0.19935285 0.12024742
0.00122621 -0.17813444 0.02785105
0.07455848 -0.50796041 0.02044226
-0.0024728 -0.49252973 0.06217658
0.03478962 0.27744777 0.0755208
-0.00176831 0.13110734 0.0385028
-0.01262329 0.20341727 -0.07816094
-0.02899063 0.21103370 0.1121302
0.02485289 0.27385358 -0.04135122
0.07203676 0.26488865 0.03197444
-0.06610309 0.24658907 0.06283844
0.03869922 0.28302803 0.06920153
-0.0530107 0.30311258 0.01545024
-0.07875913 0.25053084 0.02091535
-0.00925338 -0.50998046 -0.36783445
0.10175799 0.17333570 -0.01925148
0.06030637 -0.50993901 -0.01287534
-0.01085577 -0.50751861 -0.05056961
-0.0672424 0.25766924 0.04775038
0.0577342 0.28015111 0.0460359
0.01143124 0.18553299 0.02679434
0.04535533 0.22010467 -0.06031491
-0.11030451 0.17278200 -0.00887793
0.00402574 -0.50993901 -0.04350768
0.08269509 0.23122581 -0.00970632
-0.07398652 0.19068785 0.0998083
0.07083432 0.24570974 -0.01973178
0.01501388 -0.49391137 -0.01859301
-0.01616698 -0.50018154 -0.04661384
-0.08415086 0.18134001 -0.04577538
0.0094959 0.19075241 -0.0817867
0.01174398 -0.46903712 0.01128876
-0.09667391 0.20866512 0.00561972
-0.02772043 -0.48975052 0.04349074
0.1038771 0.19302747 0.04980077
-0.01938341 0.03692696 0.01547563
0.01831925 0.05992214 0.03956676
0.000748 0.27921545 -0.04381105
-0.00998349 0.08642300 -0.00771094
-0.00967468 0.30347392 -0.02515819
-0.02265922 0.19462457 -0.08102488
-0.00523913 -0.50639676 -0.08171166
0.05424038 0.21155288 0.1035193
-0.02501002 0.24081521 0.10176457
-0.04307598 0.27038475 0.07239331
-0.00209701 0.19196917 0.03660053
0.03905545 -0.49705062 0.05566076
0.09711914 0.19060293 -0.01725681
0.0980179 0.19373352 0.06307489
0.09710485 0.20789805 0.01915224
-0.0259918 0.08642300 0.00127133
0.05244703 0.30077612 0.02837587
-0.07533048 0.17808218 -0.0621487
0.00366371 -0.29120586 0.01698291
-0.02418608 0.30053229 0.0716019
0.10493169 0.19730340 0.01765646
0.01373051 0.20423063 -0.07779464
-0.00680182 0.18458764 0.12903609
0.03526423 0.22276540 -0.05993622
-0.06175416 0.26978537 0.05378124
-0.02021977 0.08642300 0.03405737
0.06752135 0.23663217 0.07521331
0.05892259 0.29104818 0.00712479
0.10562929 0.19683746 0.02285595
0.05430956 -0.50243277 -0.02874621
0.02219072 0.27114464 -0.04383754
-0.04204674 0.26736074 -0.03458069
-0.01778059 0.03825484 0.03246351
0.00085926 -0.38783659 0.02997382
0.04376876 0.22546544 0.10235971
-0.00483618 -0.44284308 0.01938845
-0.06167626 0.28506097 0.02812184
-0.0310499 0.30240400 0.06257426
0.0480239 0.27746700 0.06896634
-0.06337474 0.19410904 -0.06178917
0.05249777 -0.49824639 0.00334083
0.00359151 -0.46537726 0.00905951
-0.00960935 0.10040544 0.01166357
-0.01052234 0.19669228 0.00778374
0.00255125 0.09238185 -0.01524798
-0.07900143 0.24544696 0.03975453
-0.07626179 0.24708148 0.0121156
-0.04780435 0.28351755 0.06291318
0.03124187 0.19089417 -0.07788249
-0.01793959 0.05880364 0.01181364
0.09917525 0.19522936 -0.01431063
0.0907971 0.20418526 0.06761792
0.00413806 0.18647419 -0.08452849
0.00290985 -0.25538211 0.01664659
-0.01498298 0.12806962 0.01577054
0.01565085 -0.50698441 0.0941777
0.07531974 0.25841208 0.01367509
0.03127186 0.20893142 -0.07185536
0.00539713 0.18614726 0.13162583
0.01051529 0.10396505 0.02031547
0.06815097 0.27361691 0.01419662
-0.00893218 0.06916781 0.00891362
0.00024051 -0.04425742 0.02787306
0.09137242 0.17524546 0.08374816
0.07249015 0.25098414 0.04638081
0.05103344 0.30570301 0.0298372
-0.05950722 0.26989588 -0.00721947
-0.06258532 0.28215585 0.0317216
0.01799665 0.28325823 0.08351364
-0.01635134 0.26012838 -0.04769474
0.03021623 0.20178060 0.12007127
0.09373736 0.17355560 -0.04581955
-0.02597201 -0.50286701 -0.04647786
0.06907264 0.22881738 -0.03026886
0.01376923 0.16059426 0.00469309
0.00819383 0.05428003 0.03694015
0.07785613 0.25264270 0.01208119
0.05263236 0.27655376 0.0636688
-0.0188437 -0.51048978 -0.33203067
-0.02880056 0.29333997 -0.0255657
-0.02567849 0.08990679 0.05532518
0.0756552 0.24752542 0.04300515
0.0665708 -0.50012722 0.04084333
-0.1142108 0.17576387 0.02425712
0.10851496 0.17364779 0.06250297
-0.06698748 0.19765139 -0.05690974
0.05295328 0.28909219 -0.00940368
-0.06861417 0.23198767 -0.0267592
-0.06269537 0.26781467 0.05393927
0.10236253 0.17522028 -0.0185027
0.05945922 0.28943927 0.03813819
-0.0105548 0.09751731 0.0046983
0.02401704 0.26204224 -0.04773071
-0.00690061 0.11975456 0.00880823
0.0060841 0.02549398 0.02782481
-0.01869309 -0.50993901 -0.02787885
-0.09155546 0.19457502 -0.03045838
0.06021257 0.26343023 0.06396385
0.01083981 -0.45853518 0.02189568
-0.01063239 0.13066832 0.03440399
-0.11329826 0.17742481 0.02518335
0.03783012 0.20644246 -0.07041044
0.00046101 -0.35901052 0.01616589
-0.11238304 0.17779692 0.03079032
0.05629814 0.20783884 0.10042461
-0.03318579 -0.50248116 0.0875576
-0.0505341 -0.50993901 0.02393814
-0.09146745 0.21515087 0.04942337
-0.00211002 -0.01864976 0.0168535
-0.01291882 0.10093759 0.02030135
-0.02948099 -0.50993901 -0.03117303
-0.07653213 0.21443903 -0.03489903
0.04421205 -0.49826889 -0.01175888
-0.01508754 -0.49911258 -0.03538528
-0.03614769 0.30033750 -0.01949079
-0.01663224 -0.50993901 0.04519889
-0.02106683 0.23895959 -0.0601308
-0.0168636 0.23369256 -0.06021072
-0.0684964 0.18819219 -0.05765386
-0.05181644 -0.50993901 0.06398661
-0.05136249 0.27204420 0.06231512
0.05580784 -0.50993901 0.01255049
0.02551169 0.17522871 0.12925339
-0.04406651 0.30010905 -0.00593963
-0.03088619 -0.49855812 0.06858301
0.02366876 0.24643247 0.09997493
-0.03170091 0.28145858 -0.03410627
0.00523277 -0.10745337 0.02565908
-0.02837611 0.26791980 -0.03919996
-0.0079157 0.13195237 0.03634747
-0.05686574 0.20327724 0.10545644
-0.0657646 0.17278200 -0.06928036
-0.07701363 0.25006741 0.00597925
-0.05781909 0.28436690 0.04529927
0.00614281 0.10389632 0.01357578
0.01468578 0.11977596 0.02766044
-0.01580582 0.06120737 0.00122483
0.03082061 -0.50019402 -0.042048
-0.04564407 0.17775933 -0.08130143
-0.00542869 0.09414281 0.05206137
-0.02529995 0.09445182 0.0078624
-0.00170561 0.15293910 0.03891145
-0.00648185 0.13619512 0.03646452
0.00511845 0.28053535 -0.04260723
-0.0050503 -0.31176201 0.0205644
0.00147423 0.05882204 0.00084189
0.08974824 0.22399705 0.04528808
0.01650427 0.04458007 0.02818996
-0.11494575 0.17278200 0.02205894
-0.00383368 0.09859314 0.03947883
0.05689282 0.23282670 -0.04097735
-0.03777636 0.26843632 0.08134413
0.0559822 0.29453083 0.02002434
0.02159162 -0.50993901 -0.02209712
0.0110767 -0.46600460 0.03079666
-0.06274348 0.19498482 0.10587912
0.00832575 -0.50396483 0.09514226
0.08099425 0.23548710 0.04496124
-0.04487597 0.22976788 -0.05104643
0.00844412 0.03188280 0.031857
0.01490231 0.28621923 0.08274013
0.01061795 0.17307148 -0.08702793
0.02135469 0.16895500 0.00727121
-0.04320145 0.23696457 0.09217712
-0.10309361 0.17278200 -0.02607794
0.08295536 0.18851166 -0.04827646
0.0963557 0.21465088 0.0288911
-0.00412591 0.19610623 -0.07977861
-0.02862814 0.08642300 0.05149121
-0.05999895 0.26596302 0.05500926
-0.1079597 0.17717274 0.00012071
-0.0030877 0.10236967 0.0329762
-0.10858369 0.17442572 0.02810997
-0.05189146 -0.50722751 0.07427268
0.00689936 0.18207522 -0.08924024
0.05342732 0.20339486 -0.06114406
-0.02910212 -0.50993901 0.00511
-0.04653525 0.21262940 -0.06312042
-0.06514162 0.21986207 0.08481119
-0.0109302 0.13337911 0.01019029
0.08586735 0.18859459 -0.04441725
0.03810363 0.29529911 -0.0219578
0.01617523 0.13738154 0.01815214
0.02836389 0.26859588 -0.03938369
-0.07108479 0.22316422 0.07450589
-0.00381519 -0.50340540 -0.20056512
-0.01384965 0.16895500 0.02409755
0.0512691 0.24018236 0.08876884
0.00117334 0.17622057 0.01373566
-0.03018092 -0.49966553 0.07705377
-0.00447143 0.17102355 0.02528283
0.11008912 0.17278200 0.0038404
0.03133654 0.17278200 -0.08880169
0.01662707 0.20171085 -0.07861267
0.05854048 0.28117447 0.00129931
0.06990647 -0.50677437 0.04685748
-0.04625483 -0.49696060 0.00296753
-0.04684098 0.30338456 0.01306656
0.05690756 0.21883450 0.09714116
-0.01871063 0.19004624 0.12785024
-0.05360299 0.27783867 -0.01077637
0.00334792 0.16895500 0.03972065
-0.00450978 -0.08555676 0.01922258
-0.11040991 0.17547400 0.01609509
0.05854239 0.21855785 -0.04819956
-0.06595436 0.27506194 0.01234706
-0.05211669 0.26496703 -0.02754714
0.05419035 0.26034227 0.06935058
-0.00897899 0.20339877 0.12277583
0.03502375 0.08642300 0.00527557
0.05263898 0.19296368 0.112081
-0.08421602 0.17278200 -0.05647462
-0.09991841 0.20134002 0.04034723
0.00884238 -0.39173408 0.02851041
-0.05701001 0.26644208 0.06415335
0.03524898 0.29805324 -0.02251004
0.09436995 0.18936596 0.06954572
-0.03031657 0.24877861 -0.04817372
0.02109431 -0.50993901 0.08352562
-0.00892509 -0.50993901 0.01425701
-0.03019898 0.21620053 0.10899036
0.09224998 0.20245895 -0.02211383
-0.01734375 0.23872171 0.10188015
0.0588959 0.25616526 -0.02233041
-0.01302067 -0.50993901 0.05647405
0.06524225 0.17741577 -0.06753243
-0.07702709 0.24805971 0.02266225
0.11314561 0.18121548 0.02224593
-0.02924648 0.22384796 -0.06135183
-0.02005176 0.29451548 0.07638781
0.02126449 -0.47833442 0.01375795
0.01346269 0.09776855 0.03734237
0.020746 0.08642300 -0.01342938
0.05676079 0.29578245 0.03630469
0.10174309 0.17547400 -0.02248317
0.01984176 -0.49196793 0.05658933
-0.00129995 0.13955420 0.03757043
0.0024224 0.13454196 0.03822836
0.00091895 -0.47374100 0.04072579
0.08368405 0.22282182 -0.01768233
0.02782896 0.18354489 -0.08280394
-0.07171305 0.19221696 0.10064316
-0.02071169 0.08642300 0.02745368
-0.03812334 0.24197155 0.09254357
0.05849115 0.24369844 0.07664874
-0.01198059 0.24170190 -0.05704111
0.04089337 0.20833757 -0.06497447
0.08173278 0.24540653 0.02876443
-0.00824651 0.03056077 0.02892314
0.0234679 0.18368077 -0.08331339
-0.00505595 -0.36954677 0.02346075
0.04168337 0.21720349 -0.0633177
-0.08835087 0.21204473 0.0530552
-0.09637697 0.17719079 -0.03791293
0.04327461 0.23693450 0.09310989
-0.0051814 0.01264305 0.02250893
0.01456723 0.25326876 -0.05136134
-0.04509729 0.27767326 -0.02610533
0.00666721 0.04523618 0.03754512
-0.0660644 0.20368109 -0.05403124
-0.10152208 0.19559485 -0.00481321
0.02990609 -0.48603973 0.01304082
0.01414999 -0.50993901 -0.04940907
-0.00213356 0.16823800 0.02433467
0.05269377 0.25973032 -0.027649
0.0445976 -0.49424788 0.02026641
-0.00581783 0.28378727 0.08194614
-0.01946424 0.09118036 0.05888958
0.03228012 0.21309970 -0.06930857
0.0826195 0.22491534 0.05407443
0.0419105 0.25553710 -0.04268973
0.01725202 0.19283016 0.02389894
-0.0475409 0.23225896 0.09537177
-0.01332671 0.03501610 0.03132765
0.07023042 0.26049650 0.00519328
-0.03725251 0.22431509 0.10512214
-0.04291977 0.28915839 -0.01592383
0.00849274 -0.50993901 -0.02691015
0.0661293 -0.50159718 -0.01190775
-0.03430156 0.24808042 -0.04687968
0.01967205 -0.50993901 0.06718045
0.061233 0.26665389 0.06013487
0.01637202 0.23819581 -0.06127919
0.04582883 0.30413201 0.03819856
-0.03653053 0.23330282 -0.05670418
0.00985693 0.21697338 -0.06925801
-0.1111769 0.17278200 -0.00340841
-0.03664266 -0.50993901 0.08548588
-0.06482298 0.18752136 -0.06087146
-0.06146166 0.24605530 0.07415637
0.00455664 0.16895500 0.02804059
-0.05611459 0.29209008 0.03988987
0.01525179 -0.48659197 0.04972527
0.01960141 0.09737116 0.01306906
0.02888252 0.19069393 0.12628691
-0.01746594 0.24487934 0.10191364
-0.08255278 0.17278200 0.10062492
0.00883123 -0.47870965 0.04308532
-0.00344077 0.22934034 -0.06703051
0.08010086 0.24183254 0.01268757
-0.04025579 0.27687290 -0.02657083
0.08807318 0.22376990 0.00793594
0.01066271 0.18587852 0.02830715
0.00607861 -0.50993901 0.0210707
-0.06285641 0.18659315 0.11078422
0.11094553 0.17522962 0.02323029
-0.03755241 0.24190785 -0.04868612
-0.08996257 0.21804595 0.01120165
-0.04147137 0.08642300 0.02275753
-0.03465001 0.27372409 0.07687217
0.03968363 0.23126607 -0.05696269
0.04699173 0.17816635 0.12198725
0.02590974 0.19935909 0.12263602
0.08779224 0.18047292 -0.04335126
0.05420743 0.26172045 0.06825987
-0.02698429 -0.48586373 0.03436238
0.09394391 0.20659784 -0.01292057
0.00452792 -0.50993901 -0.0110353
-0.00342937 0.19184710 -0.08189764
-0.01752327 0.08642300 0.00575433
0.07916174 0.22660997 -0.01620584
0.02338716 0.16217302 0.01993265
-0.079233 0.17344399 0.10604008
-0.01723008 0.19827935 0.0235391
-0.00144263 -0.50993901 0.00332397
0.01564155 0.27117970 -0.04269432
0.09943262 0.17547400 -0.02755365
-0.00426669 0.17753857 0.13272523
-0.02376802 -0.50993901 -0.00755351
0.0649715 0.19173485 -0.06294727
-0.00267801 -0.01737395 0.01722308
-0.04174632 -0.50025885 -0.03785348
0.01351618 0.09479426 -0.00305653
0.00279428 -0.18219954 0.01659869
0.01857796 0.25706151 -0.05200854
-0.06818303 0.26420055 0.03148107
-0.06952411 0.25352912 0.05507038
-0.06585745 0.23006786 -0.03184012
-0.01311163 0.18875001 0.02040291
0.06821215 0.18797412 0.10309941
0.06932837 0.27041242 0.03257457
-0.10206185 0.18141170 -0.01360454
-0.02594181 -0.50993901 0.0631549
-0.08181238 0.21861667 -0.01660898
0.08628503 0.20258612 0.07229824
-0.06269113 0.23866021 -0.03415991
-0.00285826 -0.49903133 -0.03655741
-0.07894909 0.20077614 0.08646786
-0.05831601 0.26995016 0.05973159
0.03341257 0.30031964 0.06297192
-0.01969603 0.16882764 0.00653871
0.00388939 -0.11239303 0.01715591
0.02255396 0.26447008 -0.04709651
0.09535664 0.21507042 0.00916417
-0.08901654 0.17362660 -0.04033399
0.06248798 0.26754306 0.05781
0.01438549 0.14683420 0.02952716
-0.03551019 0.29538515 0.06332707
-0.03518684 0.09116168 4.383e-05
0.10282601 0.18878766 -0.01344091
-0.04988555 0.18529041 0.11982371
0.10198202 0.17563498 -0.03169776
0.02790333 -0.50993901 -0.03620723
-0.01938198 0.30456808 0.07153029
0.03128824 -0.49349764 0.05123399
0.06309702 0.21286826 -0.05181407
-0.07538529 0.25671333 0.01764162
0.00598473 0.18243361 0.02960041
0.04918095 0.30330741 0.02061489
-0.02234494 -0.51081880 -0.30825977
-0.0431967 0.26908198 -0.03267435
0.02711051 0.17797055 0.12967888
0.0309706 0.18344380 0.12592752
0.03038262 0.24003896 0.10045972
-0.0537159 0.26008975 0.06851563
-0.07143877 0.23121706 -0.02852994
0.02780716 0.08642300 0.049665
0.07617166 0.25216946 0.02391004
-0.05586978 -0.50993901 -0.02368345
0.07037202 -0.50533415 -0.00166563
0.01609909 0.20357592 0.01022978
-0.11368832 0.17392355 0.0092453
-0.06979651 0.20614286 0.08938037
0.05974316 -0.50993901 0.06455664
-0.00251932 0.21503839 0.00969143
0.03912586 0.21788310 -0.06083063
0.05639369 0.21272936 -0.05331534
0.04177988 0.30570301 -0.00890773
0.10251534 0.17855032 -0.02681516
0.04781113 0.24803620 0.08675037
-0.05618928 0.23426123 0.08754479
0.02277573 0.24634775 0.09718948
0.08662903 0.23047730 0.02290826
0.05591037 -0.50993901 0.03037596
0.03080786 0.18241929 0.12971612
0.07785296 0.24902200 0.00055081
0.01878095 -0.50993901 -0.03346156
-0.05698621 -0.50011541 0.05802128
0.00146975 0.09827573 0.04076273
0.02515431 -0.49148080 0.05170477
-0.0811376 0.17873635 -0.05657481
0.00645881 -0.27428952 0.02139528
-0.04837723 0.21357849 0.105842
0.02813593 -0.48351616 0.02230626
0.0627188 0.26418858 0.06010967
-0.0255454 0.24565448 -0.05494471
0.07865014 0.21406195 -0.03407993
-0.00225044 0.24277745 -0.05780989
-0.09877893 0.20615320 0.03159904
-0.04564565 0.24865336 -0.03922163
0.09192217 0.18368226 -0.0403347
-0.00521718 -0.50608007 -0.0801179
0.06887649 -0.50013321 0.01670571
0.0620524 0.26078012 0.06362051
-0.07270904 0.22774991 -0.02470788
-0.02855212 0.27364566 0.08352737
-0.0508884 -0.50993901 0.03291687
-0.00951602 0.10283053 0.018219
-0.01891752 0.21292226 -0.06982696
0.00049054 -0.21400717 0.016162
0.06028932 0.21360009 -0.04980832
-0.09174085 0.21234240 0.05222674
-0.01047238 0.14043751 0.01092521
-0.06248641 0.24175594 -0.0271723
0.00309155 -0.49931744 -0.03855518
0.082014 0.21558638 0.06704047
0.10148691 0.18702454 -0.01884785
0.0868491 0.23128924 0.00318306
-0.0834556 0.22943210 0.05115382
-0.07180372 0.24542586 -0.01543337
0.03221607 0.26979815 0.08449914
-0.11326433 0.17717922 0.02632911
-0.03621373 0.21955100 0.10798593
-0.00184928 0.22133822 -0.07104913
0.01721832 0.17547400 -0.08709959
0.09123016 0.18810122 -0.03295671
-0.10687464 0.18341729 0.02966931
-0.08910901 0.22016679 0.03174121
-0.00112671 0.24033318 0.10622872
0.0524529 0.20472915 0.105225
-0.02243318 0.22987316 -0.06109635
0.08741852 0.22456339 0.0058322
0.00552712 -0.48121423 0.04664044
0.01346615 0.27801110 0.0868363
0.05271855 0.30570301 0.02920276
0.01267153 -0.49187310 -0.01532008
0.00648429 -0.28455668 0.02247943
-0.06530344 0.27674191 0.01347718
-0.04133676 0.27533632 0.07078239
-0.09422564 0.18606582 0.07090968
0.09532676 0.19049765 -0.02171388
-0.08264581 0.23390583 0.0129688
0.0371636 0.18340760 0.12338082
-0.00433324 -0.00360972 0.0251384
-0.00784416 0.18120550 -0.08638184
-0.06693447 -0.50314636 -0.00682707
0.01178989 0.24643644 -0.05795996
-0.01769366 0.24668967 0.09804129
0.09713817 0.20721207 0.0272023
0.00197407 -0.13495738 0.01631552
-0.00218604 0.08642300 0.05061003
-0.00418742 -0.42444939 0.01917593
-0.01027986 0.30570301 0.07368401
-0.00500709 -0.50365133 -0.1991767
-0.00124104 0.19878317 -0.08186554
0.01722899 0.04542622 0.0227088
0.0727866 0.24227840 -0.01227437
-0.08181378 0.19471227 0.08258053
0.04178609 0.27876934 -0.02896503
0.07999829 0.24711142 0.03577563
-0.04377246 0.24222521 0.08860969
0.06096319 0.18062453 -0.06890694
0.00322201 0.20750260 0.00388864
0.0736471 0.24079198 -0.01203002
0.03140874 0.19847739 0.1180666
0.00299746 0.17680351 0.02867428
-0.09688262 0.20611780 0.04613243
0.00416148 -0.38326442 0.01736449
-0.0120239 -0.50705227 -0.19540656
0.0336108 0.08642300 0.0458397
-0.05501987 0.27826862 0.05185429
0.00999861 0.24439063 -0.05618878
0.04261086 -0.50993901 0.02537978
-0.02598771 0.18482004 -0.08525363
-0.07934215 0.23080216 0.05939467
0.0122488 0.08552460 0.03782317
0.04264249 0.30259725 0.05649814
-0.04550482 0.23761966 -0.04589312
0.01322819 0.25666055 0.09703046
-0.09862616 0.19392407 0.05059538
0.07846199 0.24675645 0.01804209
0.04139596 0.08642300 0.02815059
0.00329381 0.26349631 -0.05095818
0.0907636 0.20171397 -0.0188983
-0.04676026 -0.50993901 0.03635076
-0.04121201 0.08983728 0.02920223
-0.01101261 -0.48516289 -0.00491388
0.02008236 0.16512713 0.00693862
0.06576754 0.26297160 -0.01142381
-0.00835979 0.07489490 0.03351479
-0.09487187 0.19525967 0.06573401
-0.07350702 0.19015181 0.10049509
0.00513722 -0.50993901 -0.04764683
-0.07966273 0.22036427 -0.0262258
0.02263898 0.27921532 0.08365574
0.00652763 -0.12339471 0.02215061
-0.11122122 0.17632987 0.0222786
0.00774339 0.14042373 0.00810061
0.0403093 -0.50993901 -0.00043803
-0.05917732 0.28147284 0.0374346
-0.07413745 0.17430183 0.10943965
0.09736232 0.20844317 0.04369103
0.02235747 0.23963035 -0.0598082
-0.03622956 -0.50993901 0.05394142
-0.0219656 0.16195180 0.02403961
-0.03332273 0.24675897 -0.04796014
0.04074086 0.25177253 0.08995276
0.00670371 0.16253354 -0.00039225
-0.01410583 0.08600847 0.00803446
-0.09492843 0.18642961 -0.03236036
0.00438941 0.16133662 0.01576417
-0.06219394 0.24879872 0.06621993
-0.02145833 -0.47844402 0.01895869
-0.08563642 0.22495686 0.00332837
-0.01720659 0.29594648 -0.02951033
0.02628698 0.09338050 0.04355619
-0.0267079 0.29013352 -0.02854395
-0.05501613 0.30029697 0.02362189
-0.00435933 -0.20707442 0.02510439
0.01457596 0.05120074 0.01455561
-0.03017318 0.08642300 0.02309025
0.11406854 0.17488637 0.03812057
-0.01370521 0.19242060 -0.08027189
0.03418321 0.08642300 0.04059321
-0.04540934 0.28838489 0.06226117
-0.01900315 0.05995493 0.03833856
0.02758437 0.22359565 -0.06589202
-0.00020198 -0.42746306 0.02754765
0.06075219 0.21373705 0.09722328
-0.00214246 -0.50348893 -0.2011774
-0.0673823 -0.50015551 0.03561741
0.09230989 0.19924843 -0.02592826
-0.0233229 0.22575367 0.11015694
0.05832576 0.28621923 0.00777063
0.00196233 -0.35048113 0.01631397
-0.00022433 0.16895500 0.04415148
-0.03145959 -0.50993901 0.06283383
0.01756046 0.29375898 0.07833045
-0.00090112 -0.46428801 0.03456248
-0.06010987 0.27244366 0.05447262
-0.02019333 -0.49967694 0.0812706
0.03439481 0.20089325 0.11559568
-0.03691219 -0.50993901 -0.02594711
-0.00075517 0.24271677 -0.05803555
-0.09804554 0.19430627 -0.00739877
-0.03001405 0.19035754 0.12546604
0.0786159 0.18137271 -0.05461317
0.01925485 0.19820683 0.12108046
-0.00602719 0.16458863 0.04554934
0.06244807 -0.50024549 -0.01700057
0.01570526 0.18703263 -0.08572096
-0.07367395 0.21468337 0.07770627
0.09571283 0.18944052 -0.02208549
0.02601954 0.27676246 -0.03618318
-0.00098743 0.24516522 -0.05982087
0.0159388 0.29164158 0.07688457
0.08195032 0.18855744 0.08882336
-0.00529704 -0.39870170 0.0130825
0.03096385 0.09197448 0.04617999
-0.02087425 0.23266015 0.10430072
0.09417741 0.21408498 -0.0031234
0.0414206 0.19727833 0.11773045
0.00602008 0.01245568 0.0243362
0.02038095 0.28805477 -0.0327506
0.00458059 0.05723315 0.00351919
0.05318473 0.30051759 0.02370539
-0.07856608 0.25041905 0.01904458
0.05798271 0.26884794 0.05781468
0.10046267 0.19898267 0.03170442
-0.02530848 0.19887624 0.11979832
-0.00132918 0.20522750 0.00324089
-0.05899007 0.22982385 0.08430985
0.06577352 0.22675699 -0.04101937
-0.00680076 0.25737080 -0.0532454
-0.02346592 0.27391740 0.08229648
-0.00144645 -0.19446694 0.02748995
0.10293069 0.18924856 0.04815313
-0.02206633 0.24545832 0.10061213
-0.01074184 0.23179218 -0.0619212
0.01176204 0.20270951 0.0059806
-0.08162442 0.21761714 0.06242203
0.04305805 0.28981782 -0.01688128
0.06697012 0.17701118 0.11057389
-0.02604066 0.06130877 0.02153785
-0.09928757 0.19517034 0.04480529
0.04749932 0.20402786 0.11176506
-0.05095323 0.26537060 -0.0287506
0.02293497 0.29747752 0.07420464
-0.0333936 0.29058722 -0.02367858
0.00933168 0.23224793 -0.06205649
0.00264788 -0.49573275 0.06938469
-0.06212901 -0.49971428 0.01665135
-0.00867904 0.21346059 0.11504526
-0.04026217 0.22102272 -0.06143133
0.02440864 0.26299391 -0.04388359
0.02783498 -0.49738468 0.06683144
-0.00116865 0.28411883 -0.03827364
0.06127599 0.22948784 0.08745189
-0.0370999 0.27450578 -0.03040069
-0.03783945 -0.49175399 0.02780484
-0.0140869 0.09420252 0.04876806
0.06240286 -0.50993901 0.05131981
0.01403064 0.22946106 -0.06574529
-0.02321792 0.30219145 0.07115541
0.08194455 0.24572161 0.02601639
0.04895539 0.20251286 0.10873723
-0.0695508 0.25274421 -0.01184743
0.07050338 0.26785409 0.03289938
0.03771076 0.24065189 0.09711146
0.10123673 0.17506291 0.07832837
0.01986291 0.03844594 0.01349637
0.09148028 0.22258015 0.03725578
-0.00140994 -0.13018623 0.02750506
0.04448384 0.27754986 -0.02762027
-0.08263236 0.23182622 0.03878066
0.0137889 0.20091188 -0.0793667
0.00366449 -0.26278116 0.02708544
0.07270105 0.20337192 -0.04526683
0.0411806 0.30013175 0.05545923
0.04704166 0.29383236 -0.00857803
0.10110109 0.18585393 -0.02122283
-0.03038803 0.19637566 0.12223704
0.03783108 -0.49059207 0.0228807
-0.03428114 0.08642300 0.04378429
-0.00758262 0.24046725 -0.05820777
-0.02577091 -0.50993901 0.0134091
0.07247111 0.26445854 0.03023036
0.00905209 -0.50909137 0.09504662
-0.00954327 -0.48408809 0.04811594
-0.06296425 0.21600424 0.09320641
0.05050764 0.19876316 -0.06908231
0.0880275 0.19835880 0.07330454
0.01281143 0.20651319 -0.0738481
-0.03747481 0.30301100 -0.0092096
0.06149529 0.26396223 -0.0127931
0.05920151 0.26693038 0.06256809
-0.00513257 -0.20545255 0.02118858
0.02444738 -0.49973320 0.08043843
-0.03473098 -0.49996894 0.07629071
0.0009448 0.16895500 0.03172104
0.047075 0.22317365 -0.05425283
0.06745209 -0.50010688 0.03018282
0.06072801 0.25694810 0.06831725
-0.02939624 0.28937390 -0.03101764
0.09647481 0.20935646 -0.00300311
0.04784905 -0.50993901 0.06436351
-0.06547146 0.23171694 0.07519096
0.05588582 0.29894339 0.0126033
0.00560288 0.00154199 0.01889217
0.02940295 0.25527053 -0.04895908
0.03802311 -0.50078500 -0.04191298
-0.07081013 -0.50993901 0.0137908
0.03712341 0.17652644 -0.0827855
-0.03779272 0.24748923 -0.04893487
0.08781139 0.21595201 0.05259376
-0.05194567 0.21073614 0.10479474
0.01633041 0.13703724 0.02509657
0.06118277 -0.50993901 0.04048895
-0.00251576 -0.36697872 0.0170987
0.01267025 0.08313833 0.03447714
-0.03471444 -0.50993901 0.07831503
-0.05451381 0.22782710 0.0889324
-0.05619083 0.29020640 0.0155839
0.00175751 0.17745393 -0.08913552
0.06719347 0.24451785 0.06467217
0.01471674 0.18174691 -0.08836716
0.06816702 0.23215909 -0.03371232
0.01292483 0.05558420 0.03461008
-0.00187095 -0.18518230 0.0273143
0.02381323 0.26030524 0.08962997
0.02722427 0.24441160 0.0963358
-0.03862704 0.23790395 0.09761153
0.04118396 0.18853671 0.12229374
-0.0334298 -0.50993901 0.04276059
0.07118056 -0.50022991 0.03923963
0.08083387 0.21190162 0.07218056
0.05722725 0.17416752 0.11610548
0.04761882 0.30090661 -0.00073382
0.00104328 0.21581661 -0.0709688
-0.00480644 -0.40016605 0.03069426
0.06585421 0.23302397 0.07532804
-0.00746682 0.06305022 -0.00054449
0.00918596 0.23615026 0.10434469
0.08119448 0.24463678 0.03563703
0.00784421 0.17278200 -0.08824508
-0.05258856 0.29176987 0.00305277
0.02338369 0.09588905 0.0315639
0.04334831 0.27323576 0.07518473
0.04734044 -0.49703218 0.04225946
-0.06680806 0.22013631 -0.03830057
0.08678776 0.19496697 -0.03827776
-0.05040517 0.17542942 0.11990476
0.01358285 0.19323962 0.03192461
0.09193438 0.20108977 -0.01684153
-0.00463275 -0.37335092 0.02454946
-0.00490405 -0.06967702 0.02389447
0.03525188 0.23791416 -0.05220318
0.03817621 0.21351585 -0.06345482
-0.06292985 0.23648865 0.07965937
-0.06195307 -0.49976087 0.03104886
-0.04195825 0.24189191 -0.0460733
-0.10343189 0.19640330 0.03150797
0.08073163 0.24407263 0.00293583
0.04123935 0.26625098 -0.03310558
-0.10808883 0.17278200 0.04655188
-0.01690262 0.18081820 -0.08835478
-0.03944535 0.23816403 -0.05301374
-0.05168122 0.17487265 -0.07447881
-0.07591468 0.24831997 0.01395706
0.00134446 -0.50460202 -0.20159461
-0.06960077 0.26775623 0.03049713
0.03436531 0.08710753 0.0478085
-0.02484858 0.21127695 0.11691981
-0.00384091 0.29361990 -0.03339942
-0.08606239 0.17547400 -0.04607684
0.05761786 0.26891316 -0.01896764
0.03253449 -0.48884898 0.03407422
-0.00253447 0.09565632 -0.00299799
0.07278523 -0.50477123 0.03709751
-0.09119171 0.19741544 -0.02011123
0.0442709 0.30063531 0.05589697
-0.03231455 0.26924765 0.08101655
0.06382132 0.26794241 -0.00999244
0.01900224 0.08642300 -0.00204193
0.07747883 0.19572487 0.09394874
0.06254315 0.24401436 -0.02699709
0.00730535 0.23920524 0.10313808
-0.0783787 0.21566237 -0.02668977
-0.10189291 0.18990640 7.911e-05
-0.10782158 0.18741616 0.03065874
-0.01403188 0.22692790 0.11091067
0.01962084 -0.47891436 0.03473141
0.03844622 0.09040592 0.00238439
-0.07080024 0.20777277 -0.04268255
0.06103178 0.28362179 0.01893697
-0.00400908 -0.17087406 0.01850761
-0.01658939 0.20246938 0.0144643
-0.00984134 0.21129172 -0.07179793
0.05997959 0.21182661 -0.05482597
-0.04706895 0.30570301 0.00562624
0.04928463 0.30386431 -0.00078766
0.01935139 0.08642300 0.00522999
0.00469332 -0.06844723 0.01777219
0.06771997 0.27219916 0.03832969
-0.05619096 0.23263248 -0.04438558
-0.00757134 0.17403262 0.13693943
0.04210175 0.30316395 0.05676349
0.04221813 0.09054671 0.03142621
-0.02038828 0.27417346 -0.04251278
0.00815662 -0.49845990 -0.0332487
0.0501805 0.19522885 -0.07102316
-0.00069895 -0.51006017 -0.19868653
-0.06004969 0.18267943 -0.07113965
0.04523433 0.25910928 -0.03428841
0.01116493 0.16127698 0.0417459
0.03854886 0.22792237 0.10006805
0.00518786 -0.13596314 0.01835078
0.07405441 0.26243195 0.01859663
0.01650174 0.09925523 0.0181578
-0.00150424 -0.48050936 -0.00223458
0.02675925 0.24955941 0.09389882
-0.01418145 0.17278200 0.13188487
-0.05004138 0.30363822 0.00381578
0.07371338 0.25272136 0.0035372
-0.07926232 0.19286063 0.0873411
-0.10430329 0.19017533 -0.00328227
-0.01394224 0.06914108 0.02929157
0.08298817 0.23380008 0.00557632
-0.01588704 0.30422623 -0.02296993
-0.00313702 0.29556495 0.07967356
0.10530576 0.18952543 0.05067044
0.02968638 0.25687022 -0.0448255
0.01323155 -0.50993901 0.00761637
0.05827116 0.29466723 0.01526039
-0.03074816 -0.49937930 -0.0304948
-0.08113951 0.22085512 -0.02319571
-0.08767835 0.21079190 0.05622376
-0.01199342 0.05991675 0.00078321
0.00844144 0.03478451 0.00753798
0.07484729 0.17547400 0.10499567
0.00111673 -0.50505819 -0.2077209
0.08089214 0.23156923 0.05776046
-0.06666714 0.27448601 0.01567964
0.0637636 0.27849647 0.04124129
-0.07251458 0.18503914 -0.06017106
-0.08292613 0.18461362 -0.04483366
0.05545219 0.22746970 -0.04899459
-0.09558878 0.19792628 -0.01658881
-0.05055577 0.24503009 -0.04133489
0.09867259 0.19134535 0.06443942
-0.04474655 0.23689584 0.09475762
0.00133454 -0.11891995 0.02783678
-0.0506689 0.30570301 0.01022412
-0.0741806 0.24662128 0.0523476
-0.09086869 0.21326383 0.00079367
-0.08868648 0.21436745 -0.00525359
0.06008292 -0.50008282 0.05190672
0.0388452 -0.49173758 0.0142456
0.00651361 -0.03460484 0.02181101
-0.07292461 0.23987531 -0.01184921
-0.00081258 0.04666107 0.03807196
0.01905338 0.05678351 0.02293622
0.07079248 0.24509133 -0.01361962
0.07633603 0.19224999 0.09804692
-0.04964216 0.24264136 -0.0434569
-0.0720985 0.18465119 -0.06072111
0.06795886 0.25371057 -0.01727676
-0.05470647 0.28900282 -0.0029701
-0.03724552 0.18954635 -0.07875917
-0.10590912 0.18591897 -0.00647468
0.044299 -0.49985246 -0.02493324
-0.06226352 0.27770711 0.02760979
-0.03467724 0.08732175 -0.00164129
0.08175587 0.23490595 -0.00743553
0.06464548 0.27558328 0.01732163
-0.00478771 -0.36433485 0.02417534
0.02598025 -0.49447181 -0.01438811
-0.01487589 0.08545303 0.03382039
0.0781489 0.24094256 0.05282402
0.06573928 0.27438894 0.00258863
0.04939145 -0.49783686 0.04454397
0.01968461 0.06556967 0.02404779
-0.00968099 0.08233444 0.00900206
-0.00637595 -0.50767490 -0.0998981
0.01797805 0.16895500 0.01439019
-0.04401771 0.25311217 0.08567068
-0.08879117 0.20435246 0.06920059
-0.06872147 0.24496181 -0.01572374
-0.08913479 0.22279377 -0.00056308
-0.01907561 -0.50439631 -0.04933464
-0.02439096 0.16673807 0.0239379
-0.09879289 0.20485733 0.0361788
-0.03347066 0.29493944 -0.0247562
0.00340971 -0.50993901 0.03098964
0.02641784 0.29140190 -0.0285402
0.05438415 0.29801946 0.02049933
0.01482891 0.23915679 -0.06102495
-0.01211453 0.15762200 0.0369673
-0.0005529 -0.22676414 0.01629944
-0.08223777 0.22527985 0.05921424
-0.04587395 0.23387492 0.09568955
-0.06615244 0.24087050 0.07206252
0.02512159 0.08642300 -0.01225413
0.07575819 0.23672939 0.05606987
0.08918416 0.17361641 0.09583283
0.09843827 0.19760742 0.04956098
0.03550499 0.08642300 0.01940613
0.09552824 0.17533764 -0.04210417
0.01885424 -0.49835032 0.07447117
-0.06125491 0.26262560 -0.01196611
0.06338819 0.17280865 -0.06841041
-0.00619753 -0.50901836 -0.23012415
0.10961698 0.17824372 -0.01004905
-0.03180082 -0.50993901 -0.01183484
0.07359388 0.22379871 0.07724811
0.05690011 0.25094665 -0.02897685
0.03679251 0.27204837 0.07719586
-0.01686127 0.27328137 0.08847392
-0.10863667 0.18804298 0.02220002
-0.10523897 0.18935777 0.0008694
-0.00054519 -0.50582376 -0.05983462
-0.10329051 0.18802236 0.00388301
0.03757778 0.23045294 0.10237624
-0.00500712 -0.21734025 0.02364563
0.00754093 0.18831664 -0.08618482
0.02856406 0.28216072 0.07649787
0.00226201 -0.28974726 0.02768999
-0.0574084 0.28674314 0.01231134
0.11446814 0.17811777 0.0207258
0.00649716 -0.23553027 0.02238176
0.00644785 -0.14145478 0.02131207
0.03960984 0.09181908 0.02746341
-0.00509237 -0.05350870 0.02088354
-0.01894567 -0.50993901 0.0531171
0.00568724 0.17682876 -0.08891575
-0.08234002 0.23852572 0.03941982
-0.04865862 0.29913999 0.04919617
0.01829441 0.06718261 0.02272879
0.06340377 -0.50012735 0.04850343
-0.06452606 0.25061698 0.06177108
-0.01617855 0.06735708 0.02692096
-0.03215489 0.09346702 0.01750655
-0.02547024 -0.50993901 -0.0174827
0.08761751 0.20533322 0.0732867
0.00648582 0.00390998 0.02160016
0.05905452 0.20422308 0.10418541
-0.04778525 0.30251508 0.00470778
-0.05326805 0.28426935 0.05520954
-0.03416126 -0.49483915 -0.00677996
0.1100825 0.18141319 0.02215741
0.00468908 0.28584723 0.08128088
-0.09170247 0.21017118 0.0549969
-0.03649025 0.20066932 -0.0701912
-0.04608404 0.28079916 0.06240714
0.00334668 0.14997755 0.03790726
-0.10682016 0.18925448 0.01250754
-0.02276378 -0.50993901 0.05173728
0.08078715 0.19857186 -0.04330321
-0.02599273 0.21959539 0.10899854
0.07548765 0.24227317 -0.00575987
0.0486529 0.24530257 0.08773056
0.00670722 0.30570301 -0.03029237
0.0013936 0.03597779 0.00328132
-0.00998524 -0.39677719 0.01874018
0.10423075 0.19313262 0.02423379
-0.05736373 0.20727857 -0.05856768
-0.00488415 -0.47316048 0.0047044
-0.00547645 0.17323155 0.01847173
-0.08746743 0.21492697 -0.01522989
-0.09857143 0.18361525 0.07116239
0.00762701 0.15882253 0.04130034
0.01629092 0.17660601 -0.09060698
0.03809746 0.30308939 0.06145526
-0.00162069 -0.50892872 -0.20373979
-0.05608598 0.29645907 0.02937341
0.00178161 0.16823800 0.01640275
0.01241197 -0.50019490 0.09188161
-0.09125675 0.20866308 0.0502102
-0.06525444 -0.50993901 0.05239094
0.11177633 0.17610866 0.01565531
-0.0217818 0.28527703 0.08039028
-0.03318183 -0.50993901 0.03972196
-0.02893388 0.22014853 0.10749768
-0.00973124 0.16895500 0.0038587
-0.00739644 0.17407397 -0.09281677
0.10204194 0.17653932 -0.03043788
-0.07148403 0.26414998 0.0292308
-0.03663135 0.20346976 -0.07190137
0.09245355 0.22163164 0.01083592
0.00658889 0.09414929 -0.00798703
0.03823219 -0.50993901 0.01317119
-0.01556011 0.04607224 0.02054502
0.03853316 0.22463523 0.10495227
0.05028932 0.22988533 0.09564593
-0.03082395 -0.50046674 0.08853598
0.01215222 -0.50993901 0.05757715
0.05449689 0.29130775 0.04781539
0.09802878 0.18964047 0.0603742
-0.00079369 0.20638825 0.03901233
-0.00107808 -0.26742417 0.01642576
0.03561864 0.27456859 0.08032277
0.02825188 0.21482782 -0.0668954
0.01048956 0.05183532 0.00962717
-0.00444108 0.19295583 0.12536356
-0.09989265 0.18228850 -0.0177602
-0.06705443 0.24735339 0.06586112
-0.03280277 -0.48833259 0.02365739
0.03715697 0.17398318 -0.08726968
0.01349478 0.21544661 -0.07248681
-0.00247752 -0.45871916 0.01229191
0.06592062 0.24225661 0.06808374
0.0481826 0.23660691 -0.0454119
0.06737084 0.26461719 -0.00552397
-0.02644654 0.26167663 -0.04318832
0.02380929 -0.48441649 0.00554237
-0.07242006 0.17547400 0.1061152
0.05753599 -0.50010733 -0.01440343
0.04303171 0.25654224 0.08163248
0.05672682 0.23007989 -0.04646374
-0.00943669 0.20433313 0.12227081
-0.00970717 -0.50993901 -0.03292074
-0.00580049 0.25592529 -0.05108429
0.09348729 0.20088972 -0.01333913
-0.02474164 0.28829259 0.07442492
0.02486643 0.19310306 -0.0816251
-0.07983329 0.23497521 0.05306292
-0.04651341 0.28548792 -0.01408588
-0.01951465 -0.48974086 -0.0073073
-0.02835107 0.27956424 0.07738841
0.02690126 -0.49123643 0.04985029
0.02593517 0.28260054 -0.03323597
0.0095168 -0.50155750 0.09498543
-0.10221844 0.18871155 -0.0119474
-0.01582783 0.08215176 0.02056501
-0.0736304 0.24436951 0.05645265
0.03097648 0.26373492 -0.04078456
0.01187532 0.08642300 -0.01709275
-0.05792955 0.21821046 -0.0479053
0.08656325 0.22089166 0.05723702
0.05887189 0.28607568 0.01140104
