# .PCD v0.7 - Point Cloud Data file format
VERSION 0.7
FIELDS x y z
SIZE 4 4 4
TYPE F F F
COUNT 1 1 1
WIDTH 1406
HEIGHT 1
VIEWPOINT 0 0 0 1 0 0 0
POINTS 1406
DATA ascii
0.35724378 0.22188262 -0.23265078
0.03649904 0.00159600 0.03660178
0.13042775 0.29127974 -0.24295295
0.41150285 -0.00158700 0.19720944
0.05068253 0.12503577 -0.19372338
0.43398943 0.01358289 -0.14009914
0.43086928 0.39933148 -0.28426116
-0.10263735 0.15080603 -0.18924982
0.21221001 0.05519688 -0.15269842
0.12958221 0.08720203 -0.17659955
-0.15563474 -0.00158700 0.084336
0.06939451 0.26323203 -0.2322303
-0.16968682 -0.00724178 0.32840499
0.08427347 0.08930004 -0.16573606
0.25717929 0.28316874 -0.25393429
0.44747691 0.22279642 -0.2067276
0.00823171 0.29859485 -0.24574952
0.00946209 0.00159600 -0.00691133
0.38234589 0.00018900 0.0922836
0.37028745 0.20025344 -0.22462284
-0.18898 0.03642114 -0.14552045
-0.03068517 0.00116920 0.12271864
0.10802434 0.23306853 -0.22069879
0.09300827 0.39239880 -0.28566037
-0.15354469 0.07024938 -0.15845299
0.03267412 0.23900824 -0.23893654
0.3260143 0.07189984 -0.15908396
0.40880259 0.27148034 -0.25014604
0.1496304 0.11926227 -0.19114672
0.44883487 0.19961334 -0.19786473
0.205438 -0.00158700 0.26061476
0.07979703 -0.00158700 0.32755928
0.08700691 0.00018900 -0.06317585
0.43033505 0.13617168 -0.19855843
-0.07162629 0.07483749 -0.17075484
0.25387316 0.00159600 -0.03244704
-0.1063415 0.30702697 -0.24897312
-0.19228613 0.28215807 -0.25360993
0.1066631 0.19333856 -0.20551002
0.30988581 0.39227784 -0.28563012
-0.19564097 -0.00158700 0.05729847
0.18467242 0.00159600 0.05948848
-0.17076078 0.17876825 -0.19993978
0.01784312 0.00159600 -0.02195843
0.24289701 0.00112700 0.1654564
0.28445761 0.38444970 -0.27857185
-0.01587014 0.19942402 -0.20783649
0.21127736 0.29399085 -0.24398941
-0.06223777 0.00159600 0.01805347
0.13013965 0.00112700 0.13749055
-0.05760127 0.35114202 -0.26583831
0.06524789 -0.00075000 0.09513731
0.28952333 0.25516968 -0.22914807
0.16191003 0.02115087 -0.14409002
0.35632994 0.00710468 -0.11540836
0.10076136 -0.00158700 -0.10625743
0.4146389 0.36047328 -0.26940566
0.30129539 0.01129365 -0.1359142
0.26330014 0.20896846 -0.21148533
0.42914838 0.27286816 -0.2359142
-0.14603949 -0.00158700 0.2336693
0.3186391 0.00112700 0.1413474
0.29834937 0.16172345 -0.20929915
0.22146282 0.41695596 -0.28314028
-0.059121 0.17577992 -0.19879734
-0.14121592 0.30971034 -0.24999898
-0.00161071 0.00157648 0.09460917
-0.10549281 0.00159600 -0.02184621
-0.17384717 0.40360566 -0.28846254
0.0727344 0.00159600 0.04207487
0.41355606 -0.00158700 -0.08424226
-0.203888 0.19877968 -0.22164083
0.02700168 0.07911397 -0.16184193
0.00783415 0.10211714 -0.17063604
0.07947059 -0.00108164 0.26533145
-0.1906778 0.28100167 -0.25323879
0.23858229 0.00159600 -0.04503538
0.08328058 0.24348323 -0.22468033
0.07895529 0.10772276 -0.17277907
0.41696435 0.14537312 -0.18717282
0.21201829 0.00112700 0.07610529
0.34604957 0.10445920 -0.17153142
0.36819039 0.08464253 -0.1639555
0.4298042 0.21939278 -0.23172994
-0.05051204 -0.00075000 0.12078111
0.40487496 -0.00158700 -0.02171908
0.32004836 -0.00158700 0.31241902
-0.20211762 0.01008964 -0.12541012
0.15456001 0.16246913 -0.2096126
0.43025326 0.29326332 -0.25717406
0.13993509 0.18270702 -0.20144558
0.20187414 0.20392738 -0.20955813
0.37028434 0.04857868 -0.15798247
0.1250657 0.25961557 -0.23084773
-0.09402181 0.38351991 -0.28344029
0.4154429 0.41310323 -0.2895261
-0.03741019 0.14741710 -0.20328546
0.24865207 -0.00158700 0.22143307
0.45010116 -0.00158700 0.13663258
0.01935063 0.25958098 -0.24603833
0.18776695 0.07806183 -0.1614397
0.27512301 0.00159600 0.02816038
0.05715889 0.27709107 -0.25198372
0.27271418 0.00159600 -0.02151985
-0.1194678 0.38420831 -0.27847957
0.40941805 0.23646362 -0.22199674
0.17530382 0.39001349 -0.28506395
0.25243556 0.24613697 -0.2413974
0.1258784 0.00112700 0.1666381
0.38157273 0.22822206 -0.23499537
0.00836367 -0.00158700 0.27107474
0.12358528 0.00159600 -0.04872176
0.07199086 -0.00158700 0.23734412
-0.05281017 0.18026203 -0.21672904
-0.04377326 0.16832038 -0.19594556
-0.08126169 0.00159600 -0.02799618
0.14213909 0.08497213 -0.1640815
-0.08172136 0.38225351 -0.27773225
-0.02250606 -0.00158700 0.26223627
-0.02008053 0.39066184 -0.28522606
0.33662953 0.30444908 -0.24798759
0.37380792 0.16730632 -0.21161336
0.44238236 0.25581492 -0.24473827
0.33446334 0.14660422 -0.18764347
0.45047399 0.38934382 -0.28005246
0.28952187 0.09406917 -0.17984565
0.24861163 0.00112700 0.14465661
0.0188275 0.00153519 0.09745893
0.02556189 0.11757946 -0.19039569
0.38558839 0.02569864 -0.14648823
0.32116773 0.00159600 -0.01512541
0.25504266 -0.00158700 -0.08515378
0.25061252 0.31303675 -0.26342855
-0.19479241 -0.00158700 -0.04669924
0.03131311 0.00159600 -0.02608722
0.35236465 0.00112700 0.15677974
0.1634063 0.00159600 0.01406339
0.24838092 0.09100038 -0.1663861
0.13393162 0.31647805 -0.25258627
0.00662738 0.31283261 -0.26336792
0.35302661 0.18152187 -0.20099249
-0.02387128 0.36227769 -0.27009548
-0.13997813 0.00018900 0.14842713
0.23206455 -0.00158700 0.28800479
-0.00500505 0.26285756 -0.24716942
0.29617898 0.35549110 -0.26750097
0.08865409 0.40849598 -0.28968532
0.40610622 0.42156178 -0.28626609
-0.12509057 0.34033205 -0.26170567
0.34470114 0.00796039 -0.12459617
0.05389785 0.28588076 -0.24088892
0.42917355 0.25319236 -0.22839214
0.3883418 0.07677485 -0.16094768
0.40343432 -0.00158700 0.00827703
-0.00236057 0.00994257 -0.13817946
0.01822828 -0.00158700 0.23795843
0.10518798 0.37409052 -0.28089004
0.19391421 0.39712665 -0.28684252
0.1450158 0.39244069 -0.28162681
0.08923179 -0.00075000 0.09670175
-0.06392897 0.00159600 0.08426421
0.40589409 -0.00028000 0.31875524
-0.06656108 -0.00158700 0.28882406
0.0870814 0.25815898 -0.23029088
-0.0742533 0.00114828 -0.12199186
-0.15571953 0.08218144 -0.17422632
-0.14227987 0.36940922 -0.27961027
-0.04816889 0.12243055 -0.19256069
0.10255401 0.38861114 -0.28016277
-0.16741523 0.32895374 -0.26815591
0.0129585 -0.00158700 -0.1139161
0.20185809 0.28682833 -0.24125118
0.29118298 -0.00158700 0.32575283
0.08353242 0.36363831 -0.27061565
0.03106733 0.14492514 -0.18700155
0.16305934 -0.00075000 0.27022162
-0.07845246 0.21358579 -0.22958227
0.29011713 0.36761293 -0.2791192
0.43028407 0.27283254 -0.25061282
0.19592649 0.10375615 -0.17126264
0.37872352 0.14413739 -0.1867004
0.22536666 0.00015610 -0.072282
-0.0033729 0.18669142 -0.20296881
0.07827384 -0.00075000 0.27585165
-0.18379115 0.13242359 -0.19698292
0.02616658 0.40525417 -0.2865254
-0.16220337 0.04327457 -0.14814051
0.40052243 0.27549340 -0.23691783
0.07109431 0.18034446 -0.20054237
0.16123369 0.28177138 -0.2393179
0.45047399 0.41246850 -0.29024942
0.12446551 -0.00158700 -0.09335048
-0.04347189 0.14290080 -0.18622765
-0.1521169 0.22447298 -0.21741271
0.06897551 0.35368981 -0.2753129
0.21672813 -0.00158700 0.21037451
0.32052391 -0.00158700 -0.09934459
0.01273258 0.00152911 0.09787885
0.34725178 0.17927925 -0.20013514
0.43907791 0.04308292 -0.15523588
0.29880484 0.00112700 0.17480112
0.3456395 0.00112700 0.18581709
0.39292201 0.04405243 -0.1557204
0.14667299 0.00798341 -0.13714632
0.08065687 -0.00158700 0.22433747
-0.05211381 0.41458786 -0.28933553
0.03312063 0.20099115 -0.2084356
0.06811373 0.03767965 -0.15253551
0.17170536 0.22553899 -0.21782025
0.05747494 0.19554786 -0.20635463
-0.16064723 0.12338248 -0.17876579
-0.10013499 -0.00158700 0.22679741
0.19838361 0.38581862 -0.28401506
0.41790961 0.39564097 -0.28285028
0.18833734 0.22610588 -0.21803697
0.20037695 0.01047338 -0.13560061
0.21272558 0.00159600 -0.04429329
-0.08974277 0.13697468 -0.19889597
0.02722432 0.40632076 -0.28693317
-0.12906539 0.01246817 -0.1255492
0.25261504 0.14191247 -0.20097158
0.18811652 0.22397908 -0.21722389
-0.13202472 0.37925475 -0.28230184
-0.18764299 0.22271434 -0.23295839
0.20819169 0.02670128 -0.14701696
0.34495325 0.14313670 -0.18631783
0.08678161 -0.00158700 -0.1135015
0.01529885 0.23577052 -0.23778709
-0.15742361 0.16727916 -0.21160263
-0.06960761 0.36148209 -0.26979132
0.43895799 0.15864126 -0.19044668
0.30652708 0.06309425 -0.16520381
0.3274741 0.19703897 -0.22335358
0.00078061 -0.00158700 -0.07714681
0.43528658 -0.00158700 -0.00550726
-0.20375326 0.36355123 -0.26053792
-0.14264913 0.29157993 -0.24306771
-0.06546308 0.11990839 -0.17743764
0.18705563 0.08648911 -0.17626256
0.03955972 0.13344588 -0.19741264
0.19888779 0.14680957 -0.18772197
0.16344597 0.07271939 -0.15939728
0.42910077 -0.00158700 0.30043189
-0.10241133 0.11254694 -0.18814973
0.07358408 0.32663975 -0.25647109
0.2516992 0.00159600 -0.04659431
-0.07174133 0.32432091 -0.26677996
0.31520306 0.01331780 -0.13668804
0.29799734 0.11773648 -0.19046577
-0.00849102 0.01305501 -0.13658757
0.2164551 0.34142376 -0.26212303
0.00320646 0.09007068 -0.17795556
0.35831815 0.28546107 -0.24072848
-0.07056124 0.39632024 -0.28310996
-0.09507265 -0.00075000 0.11736614
-0.16495877 0.14882658 -0.20387793
0.04291757 0.30347423 -0.24761491
-0.075807 0.00112700 0.14199838
0.22139063 -0.00158700 -0.11476042
0.02415991 0.00159600 0.01404138
0.33964403 0.04264822 -0.14790106
0.45047399 0.10816189 -0.17145186
0.25533882 0.30652850 -0.24878256
-0.11203245 -0.00158700 0.20839548
0.12934553 0.01140191 -0.12640684
-0.0038086 0.00159600 0.06781135
0.24112459 0.07331702 -0.17003612
0.23091367 0.00112700 0.16658542
0.01106696 -0.00158700 0.30381258
0.36863587 0.22932321 -0.23540262
0.15741584 0.00159600 -0.01313777
0.13722701 0.00159600 -0.03823041
0.17881302 0.35906098 -0.27678127
-0.10457117 0.28930457 -0.25590353
0.09420277 -0.00158700 0.22463116
0.35751657 0.12251505 -0.1925984
-0.19425643 -0.00158700 0.29254063
0.28235305 0.38487744 -0.27873537
-0.06628031 -0.00158700 0.28747857
0.07191908 0.04022254 -0.14697373
0.39090343 -0.00158700 0.13970911
-0.17449811 0.28452577 -0.25436982
-0.06380137 0.01201889 -0.13619146
0.2563702 0.30967572 -0.26243032
0.17607247 0.05661045 -0.16199646
0.20917363 0.36407481 -0.27815195
0.08089927 0.01801896 -0.14243844
0.29102125 0.00112700 0.14326796
-0.0354274 0.32236681 -0.25483754
0.00294492 0.00159600 -0.02102351
-0.01524907 0.30459172 -0.2608098
0.33296065 0.30872713 -0.26213702
-0.19255341 -0.00158700 0.16813398
0.16620442 0.00159600 -0.05399256
0.43956139 0.15890038 -0.18230023
-0.17122352 0.40942667 -0.28991803
0.19816531 0.12061146 -0.17770643
-0.19538901 0.41601738 -0.29156597
0.4458735 0.29537631 -0.2578522
0.19774451 -0.00158700 0.32721298
0.03590418 0.40855764 -0.28970073
0.09520388 0.09123695 -0.16647654
0.3097355 0.41647619 -0.28439542
-0.10967335 0.01934534 -0.14313789
0.25665299 0.34059345 -0.2618056
-0.01897394 0.12821269 -0.18061238
0.2291003 0.26665573 -0.24848057
0.40285492 0.24503350 -0.24101648
-0.12193352 0.26840663 -0.23420856
0.23598536 0.37232293 -0.28040682
-0.06200166 0.29852628 -0.24572331
-0.1769004 -0.00548700 0.01955472
-0.03069109 0.23899673 -0.23893256
0.15624091 0.36302260 -0.2778643
-0.00040895 0.36146465 -0.26978466
0.44085411 0.25129406 -0.24317765
0.27078591 0.37845530 -0.28208329
-0.05660547 0.14812079 -0.20358126
-0.19262399 -0.00406400 0.04587637
-0.05001118 0.40953145 -0.28994423
0.24562361 0.00159600 0.02378884
0.32325734 0.00159600 -0.04466656
-0.13911451 0.30045196 -0.25948118
0.3107156 0.41278029 -0.29075657
0.31643936 0.14563699 -0.20253719
-0.203888 -0.00225181 0.1900811
-0.00087911 0.00135275 0.11005071
0.42070359 0.24753784 -0.22623041
0.19153818 -0.00010941 -0.072282
0.02175032 0.04230263 -0.15484592
0.13775281 -0.00198559 -0.13188929
0.1043186 0.00159600 0.01091862
0.09267968 0.06530229 -0.16624755
0.45047399 0.18420826 -0.21797167
0.28268541 0.20092413 -0.22488767
-0.00443262 -0.00158700 0.28991489
0.18174657 0.31278027 -0.26335237
-0.18228173 -0.00158700 0.12108983
0.01894096 0.18121626 -0.21710583
0.07323631 0.02642349 -0.14169835
0.23862213 0.37332443 -0.27431866
0.3988709 0.18972785 -0.22046671
0.16423998 0.00112700 0.0644735
0.25226474 0.08532240 -0.16421541
0.27948448 0.19632996 -0.22307362
-0.01275924 -0.00158700 0.20937399
-0.19393153 -0.00158700 0.24161378
0.08976555 0.19153241 -0.20481952
-0.00376153 0.05401943 -0.15224828
0.11975685 0.30123999 -0.2597341
-0.15818994 0.13844314 -0.19951325
0.31659998 -0.00158700 -0.0950416
-0.08808075 0.13872096 -0.19963003
0.43895799 0.09311103 -0.16516288
0.32553621 0.12888046 -0.19543923
-0.01998761 -0.00158700 0.30517592
0.03385519 0.14856314 -0.18839236
0.34931062 -0.00158700 0.23694565
-0.10939741 -0.00075000 0.10667979
0.41727283 -0.00158700 -0.00134404
0.28976594 0.07990162 -0.16214305
0.04764938 0.12067285 -0.1777299
-0.15713383 -0.00158700 0.15133102
-0.00745156 0.03493819 -0.14495352
0.31023894 0.20948444 -0.22806543
0.13889948 0.09670520 -0.16856706
0.09742856 0.22420929 -0.23351128
-0.18814394 -0.00406400 0.05417619
0.256999 0.27960447 -0.25279037
0.38885033 0.20514476 -0.21002353
0.11697682 0.06098904 -0.15491276
-0.04795309 0.00159600 0.01584209
-0.17230507 -0.00548700 0.0304345
0.22890839 -0.00851661 0.32840499
0.01424282 0.00159600 0.06051606
0.06865468 -0.00075000 0.09833522
-0.14317431 -0.00158700 0.02202885
-0.01582277 0.36316175 -0.27790234
0.20876702 0.06407882 -0.16566922
0.13973997 0.16391061 -0.1942597
0.34991518 -0.00158700 0.25206019
0.02128217 0.00112700 0.1621642
0.14891349 0.20357509 -0.20942344
0.34214064 0.09768671 -0.16894229
0.03405554 0.42117953 -0.28726613
-0.11504747 0.12067703 -0.19177811
0.4189016 0.37092510 -0.27340139
0.17323329 0.00114885 0.12412153
-0.17857727 0.03283648 -0.14415003
-0.0820998 -0.00263747 0.32840499
0.16115613 0.38540272 -0.28391107
0.31752705 0.00159600 -0.04748993
-0.01313969 0.25830973 -0.23034851
0.26799419 0.00159600 0.01120382
-0.12438411 0.12406040 -0.19328808
-0.0581494 0.34717237 -0.27353116
0.03336718 -0.00158700 0.29520657
-0.10099165 -0.00158700 0.26619377
0.32469407 0.06689310 -0.15716989
0.06615643 0.00159600 0.010768
-0.19431477 0.09983681 -0.15972037
0.20000679 0.41339702 -0.29091078
0.29260458 0.41746992 -0.2817957
0.22229783 0.00159600 0.01177174
0.15954967 0.34363703 -0.26296916
-0.203888 -0.00855937 0.09922284
0.06507085 0.30833000 -0.24947127
0.25733674 0.20662512 -0.21058947
0.26950336 0.10703571 -0.17251641
0.44831607 0.31206612 -0.26314027
0.33513719 0.17237180 -0.19749442
0.12021265 0.00112700 0.18904174
0.25420152 0.37174908 -0.28024994
0.36042704 0.41123746 -0.28881282
0.30921715 0.00018900 0.19826735
0.19119127 0.11774844 -0.1766119
0.14124636 -0.00075000 0.26613981
0.09539016 0.00159600 -0.00250816
0.41270721 -0.00158700 0.20827714
-0.0595996 -0.00158700 0.2483682
-0.14995865 0.41228417 -0.29063252
0.27279143 0.27351848 -0.25083713
0.30829192 0.00112700 0.11781631
0.16565245 0.06741091 -0.15736784
0.31858384 -0.00135733 -0.09426556
0.28772472 0.23285683 -0.22061786
0.24608283 0.19904754 -0.22414668
0.34657348 0.25769037 -0.23011173
0.36856627 0.28946465 -0.24225904
-0.00461501 -0.00158700 0.26852713
0.26000164 0.00183766 -0.12225542
-0.13432452 0.28975841 -0.24237135
-0.10859059 0.18174375 -0.21731412
-0.0516452 0.39155853 -0.28128955
-0.203888 0.17410641 -0.18966917
-0.05903961 0.35063889 -0.27447884
0.1361206 -0.00158700 -0.08375075
-0.03562999 0.34640505 -0.27332139
0.23678102 0.17746856 -0.19944291
0.04754917 0.22402778 -0.23344415
0.20809256 0.00159600 0.09135951
0.2937553 0.00018900 -0.06706753
0.19274429 -0.00158700 -0.10381053
-0.1450451 -0.00158700 0.29121681
0.18282137 0.18357031 -0.20177561
0.27813218 -0.00158700 0.25038131
-0.07852817 -0.00158700 0.31836583
-0.20122968 0.01889747 -0.14290171
-0.09902312 0.20769101 -0.22740214
0.00188957 0.00159600 0.06984724
0.30556467 -0.00158700 0.24247034
-0.18489118 -0.00158700 0.09362563
0.43229597 0.20982928 -0.22819296
0.44009178 0.16911774 -0.21232861
0.32793229 0.00112700 0.14379401
-0.18960178 -0.00158700 0.29636916
0.14223437 0.11446348 -0.17535605
0.15783645 0.30633971 -0.24871038
0.38284567 -0.00158700 -0.10640734
0.06859137 0.00159600 0.06826834
0.25776328 0.00159600 -0.00017737
0.27267625 0.15036107 -0.18907971
0.26918243 0.16375214 -0.19419912
0.35735454 0.00112700 0.12589154
0.33247447 0.09067924 -0.17824323
0.34918985 0.39489636 -0.28256561
0.0604383 0.05013585 -0.15876068
0.09102256 0.08299086 -0.17460893
0.15267711 0.29445864 -0.25755768
0.31559737 0.39708601 -0.28340272
-0.02028026 0.00159600 0.04376703
-0.06060299 0.00139587 0.10707465
-0.18908399 0.07023239 -0.15319689
0.02688863 0.34993101 -0.26537535
-0.02931892 -0.00158700 0.29202016
-0.09064987 0.38163785 -0.28295333
0.39668326 -0.00158700 0.20428917
0.43895799 0.13276560 -0.18114925
-0.02464818 -0.00075000 0.10731689
0.36215922 0.34600873 -0.26387586
0.27561111 0.00112700 0.16688795
0.12717291 0.38583588 -0.28401937
0.19966302 0.30714699 -0.249019
0.44126122 0.01242527 -0.12630309
-0.19429663 -0.00158700 0.30549343
0.26169674 0.10260530 -0.17082267
-0.10634847 0.25967960 -0.24607238
0.08141293 0.04807100 -0.15772874
-0.16379987 0.14632957 -0.18753847
0.11868559 0.32770989 -0.26778648
0.45047399 0.20172435 -0.2100191
0.2302209 0.12128164 -0.19204795
0.43573939 0.36849180 -0.27247114
-0.17450913 -0.00158700 -0.03186753
-0.16725907 0.36707898 -0.27897323
-0.203888 0.18939117 -0.19921614
0.1887448 0.14890849 -0.18852439
0.1264465 0.26884422 -0.24923604
-0.04914767 0.06122125 -0.15500154
0.06229058 0.26553302 -0.248093
0.07707829 0.00159600 0.06080189
0.12805139 0.00018900 -0.0700283
0.24136684 0.29207435 -0.24325673
-0.13849072 0.00018900 0.16573723
0.19290004 0.21433490 -0.21353692
-0.12237482 0.02021591 -0.14359698
0.05108826 -0.00132564 -0.11825315
-0.17427838 -0.00471000 0.05644818
-0.0373234 0.40965717 -0.28820868
-0.19861998 -0.00158700 -0.06187334
0.20805766 0.00155877 0.09583144
0.31973636 -0.00158700 0.31914849
0.07768763 0.35667295 -0.2679528
0.27836631 -0.00158700 0.22204953
-0.0107676 0.32080342 -0.25423986
0.35317182 0.16130246 -0.19326261
0.15329555 0.40377863 -0.28850579
0.39042282 -0.00158700 0.11940826
-0.19818747 0.32320709 -0.26644915
-0.1277418 0.08081045 -0.17357825
0.37111458 0.18837079 -0.20361084
0.37658481 0.36649967 -0.27170955
0.4146419 0.36148108 -0.27744288
0.14807445 0.18343444 -0.2179817
0.00506868 0.19400806 -0.20576596
-0.08729572 0.40724007 -0.28728461
0.10840351 -0.00121964 -0.116747
0.45024167 -0.00158700 0.0358251
0.30240578 0.00159600 -0.06039544
-0.03101997 0.17924968 -0.20012383
-0.14886437 -0.00158700 0.10498732
0.24753166 0.05308733 -0.16023573
0.22421136 0.00112700 0.14344226
-0.07823309 0.38301827 -0.28331486
0.2745362 0.00112700 0.15889983
0.39173171 0.16046926 -0.19294407
0.45047399 -0.00813481 0.24569316
0.05505397 0.36709263 -0.27897696
0.0942722 -0.00028000 0.31521354
-0.17366008 0.21118812 -0.22869552
0.26669815 0.36505356 -0.2711567
0.08584177 0.21465048 -0.22997604
0.29679992 0.00159600 -0.05518211
0.18262425 0.35408482 -0.27542089
0.45047399 0.17609717 -0.21333256
-0.11505865 -0.00158700 -0.08876575
0.02821872 -0.00158700 -0.08040918
0.45047399 0.05878129 -0.15176776
0.05900864 -0.00158700 -0.09547121
-0.05845913 -0.00158700 -0.07626392
-0.18908399 0.28114851 -0.2351145
0.37526208 0.23824624 -0.23867349
0.13570994 0.35550552 -0.26750648
0.28483354 0.37135457 -0.27356558
-0.13416896 -0.00158700 0.24688913
-0.02607772 0.13621549 -0.19857685
0.04114022 0.18916413 -0.20391413
0.11247226 0.00159600 0.00622171
-0.16466365 -0.00158700 0.13776604
0.04692354 0.15062549 -0.1891808
0.10568244 0.14923755 -0.20405069
0.38236862 0.33159830 -0.25836675
0.18628629 -0.00158700 0.25182854
0.36814297 0.21345690 -0.21320126
0.3523548 -0.00158700 -0.09007342
0.29839232 0.05630992 -0.16184627
-0.00321504 0.22606866 -0.23419895
-0.10279936 0.12202376 -0.17824635
0.29143565 -0.00028000 -0.09417334
0.15598144 0.26426421 -0.247655
0.31264748 0.30635325 -0.24871556
0.24570317 0.33528579 -0.25977648
0.31485766 0.12572983 -0.17966318
0.31264603 0.40322420 -0.28574935
0.20891047 0.24084077 -0.23956913
0.14032159 0.16534788 -0.19480917
-0.0351566 0.01118418 -0.13587235
0.03353278 0.21876536 -0.21523069
0.15475967 0.08575452 -0.17591532
0.09327872 0.00148388 0.10100003
0.2853918 0.33581371 -0.2599783
0.23830568 0.11287714 -0.18829709
-0.0351424 0.00112700 0.15600799
0.19533207 0.15228220 -0.18981416
-0.15629827 0.11530544 -0.17567794
-0.0495416 0.09024810 -0.17803943
-0.0444373 0.00159600 0.06430659
0.42065219 0.14974123 -0.18884274
-0.11846373 0.40375510 -0.28849991
0.30993432 0.04945570 -0.15050356
0.00728638 0.00159600 0.02426659
0.08851662 0.40404957 -0.28857354
0.0388261 0.00159600 -0.03891462
0.18771465 0.29372379 -0.24388731
0.00560668 0.38349465 -0.28343397
-0.08009228 0.00214924 -0.13406974
0.41873274 -0.00158700 0.23504969
-0.10798172 0.31583736 -0.25234134
-0.07561719 0.23264007 -0.23662933
0.37306415 0.22796237 -0.23489932
0.06823449 0.19066829 -0.20448917
0.24282269 0.40366252 -0.28591691
-0.03036392 0.12906654 -0.18093881
0.42613965 -0.00158700 -0.03544259
0.26232167 0.15047798 -0.2045721
0.29171888 0.13743425 -0.18413779
0.13534806 -0.00158700 0.21408361
0.12546599 0.00159600 0.04993629
0.06083906 0.12518230 -0.19378878
-0.04164252 0.00112700 0.19333829
0.09116098 0.17862279 -0.19988417
0.40826033 -0.00158700 0.1177265
0.27435718 -0.00158700 0.23466929
0.24908583 0.05692595 -0.16215414
0.19701268 0.17739686 -0.2155977
-0.17161762 0.26515387 -0.23296503
-0.12381731 0.04347022 -0.15542944
-0.17666451 -0.00158700 0.02023899
0.03701077 0.17416484 -0.21432151
-0.08490604 0.37679286 -0.28162881
0.19596823 0.00112700 0.14647533
-0.05404328 0.25742070 -0.23000863
-0.02569427 0.03895570 -0.14648941
0.22367812 -0.00075000 0.10686658
-0.10842688 0.29815251 -0.2587432
-0.14646458 -0.00158700 -0.1098001
-0.11053727 0.34914377 -0.2740701
-0.06106744 0.04457631 -0.14863817
0.44716152 0.04386288 -0.15562567
0.10407344 0.00044105 -0.12172148
-0.06539428 0.26841012 -0.23420989
-0.17199464 0.17554167 -0.21486516
0.3397798 0.01717172 -0.13816139
0.25854704 0.02438022 -0.1409172
0.33214491 0.16640218 -0.19521223
0.18820212 0.21295402 -0.22934862
-0.05993679 0.39320311 -0.28586148
0.10855554 0.00159600 0.01667737
0.25930338 0.12392957 -0.17897494
0.22437393 0.00159600 -0.04622442
-0.1779803 -0.00158700 -0.0525518
0.32792459 -0.00158700 -0.10866472
-0.11277812 0.20090120 -0.20840121
0.06946242 0.00159600 -0.05329572
-0.04177165 0.02478107 -0.14600436
-0.15076615 0.41353119 -0.29094433
0.10029567 -0.00158700 0.22905886
-0.06471926 0.00159600 0.08681862
0.13794136 0.00116831 0.12277988
0.19953771 -0.00838568 0.32840499
0.0437197 0.00159600 -0.03165852
-0.17665011 -0.00471000 0.05058838
0.06075176 -0.00158700 -0.0780246
0.31786328 0.00850541 -0.13484826
0.39275722 0.05980499 -0.16359298
0.19628496 0.13515578 -0.1981314
0.33894951 0.36847890 -0.27935594
0.1819124 0.38022896 -0.27695826
0.09022452 -0.00028000 0.3115454
0.10648558 0.35640774 -0.2678514
0.2181471 0.10814972 -0.18618729
0.3719373 0.10489517 -0.17169809
0.0500355 -0.00158700 0.31094943
-0.17878475 -0.00158700 -0.00741047
-0.17175429 0.19121509 -0.22105396
0.45047399 0.10066344 -0.16369658
0.35039196 0.00018900 0.19560757
-0.14902401 0.29037015 -0.24260521
0.34271589 0.11184174 -0.17435376
0.12130825 0.40610047 -0.28908634
-0.18686207 0.31390724 -0.26368708
-0.13225164 0.04057787 -0.15398394
0.12874192 0.06089850 -0.15487815
-0.0739263 0.05491525 -0.15259075
0.0398024 0.30897241 -0.24971686
-0.0507404 0.14083518 -0.20051874
-0.18158865 0.28773208 -0.24159668
0.02483821 -0.00179652 -0.131989
0.36958877 0.00159600 -0.057107
0.44844537 -0.00158700 -0.03239745
-0.20367499 0.06308222 -0.16519812
0.11123882 0.18497659 -0.21859063
-0.01193328 -0.00158700 0.32334056
0.11467077 0.18194251 -0.2011533
0.01036915 0.00159600 0.03478559
0.33955191 0.14869937 -0.20382446
0.10250319 0.00112700 0.13190791
0.32186887 0.00159600 0.01440751
0.21838183 0.00159600 -0.00650678
0.2462812 0.06608523 -0.15686104
0.34135185 0.24223158 -0.24004925
0.12785361 0.17808879 -0.19968002
0.41901959 -0.00158700 -0.11506166
0.05289504 -0.00158700 -0.08874183
0.273347 -0.00158700 -0.09443931
-0.19406368 0.03511711 -0.13497813
0.32445295 0.00112700 0.08178771
0.25898794 0.00159600 -0.00794225
0.36383852 -0.00158700 -0.10220941
0.347703 -0.00158700 -0.08462529
0.05901164 0.18491135 -0.21856487
0.35754642 0.00159600 0.04683412
0.21895238 0.29743440 -0.25851273
-0.19433462 0.34675194 -0.25411552
0.04358801 0.20869624 -0.22777392
-0.17280691 0.20845835 -0.21129032
0.37458125 0.42213457 -0.28293422
-0.0395135 0.00159600 0.08415851
-0.11226519 0.28111292 -0.2532745
0.30331821 0.34897454 -0.27402384
-0.11282438 -0.00158700 0.25901136
-0.16083993 0.36579687 -0.27144087
0.26391531 0.39556614 -0.28282167
0.19696951 0.39939111 -0.28740873
0.31998443 0.18907974 -0.20388187
0.01062863 -0.00158700 0.27463823
-0.18697556 0.21373841 -0.21330888
-0.01697902 0.20496636 -0.20995532
-0.0973981 0.09284430 -0.17926665
-0.1007621 0.26070886 -0.2312657
-0.12790662 0.00159600 0.05178352
-0.13226417 0.00018900 0.14266345
-0.00162533 0.27951478 -0.23845521
0.32190321 0.37264185 -0.280494
0.24684648 0.00159600 -0.05211403
0.43836661 -0.00158700 0.04514362
0.2485481 0.27535765 -0.2514274
0.10667977 0.00112700 0.15974602
-0.19358729 0.37677528 -0.26559337
0.41718792 0.07251497 -0.16965699
-0.08067095 0.13531142 -0.19819682
-0.00024592 0.35156321 -0.27473153
0.02900911 0.27881389 -0.23818726
0.43836598 0.28856389 -0.24191468
0.2567402 0.00112700 0.12035624
0.19838642 -0.00158700 0.24080602
0.05451798 -0.00075000 0.1049593
0.2481404 0.04446410 -0.15592614
0.26347072 0.23308936 -0.23679549
0.10714904 0.16608607 -0.21113153
0.2908655 0.06893114 -0.16796291
0.18722665 0.21351704 -0.21322426
0.34723556 0.18574391 -0.20260658
-0.14980067 -0.00158700 0.2743725
0.45033711 0.34163454 -0.27192212
-0.15108767 0.22085696 -0.23227145
0.35687825 0.35874093 -0.27669377
0.07510193 0.11431841 -0.17530059
0.28545887 0.27341987 -0.23612512
0.33557297 -0.00441035 -0.13061062
0.1220847 0.19584948 -0.20646994
0.27134171 0.22601756 -0.21800321
0.36759458 0.14675791 -0.18770222
0.19998128 0.02896598 -0.14267034
0.37395643 0.05010920 -0.1507534
0.40102648 -0.00158700 -0.07227724
0.36476269 0.01321543 -0.13990536
0.33685145 0.15580108 -0.20680967
0.37449297 0.36588939 -0.27147624
-0.00053228 0.28169638 -0.23928923
-0.11660876 0.00136593 0.10914052
0.1697962 0.10084264 -0.1829262
0.30569178 0.00018900 -0.06877291
-0.00265017 0.39694844 -0.28335012
0.27272366 0.34202108 -0.27203693
0.00765179 -0.00158700 0.28011037
0.11297628 0.00159600 0.07952562
0.45047399 -0.00165457 0.25990175
-0.16362603 0.36181997 -0.2699205
0.09746273 0.16012515 -0.19281252
0.45029373 0.26521799 -0.24798425
0.43340459 0.18025676 -0.20050884
-0.04897873 0.27028523 -0.24973348
-0.04086741 -0.00158700 -0.07373518
0.11965043 0.27169121 -0.25021883
0.43635029 0.20094921 -0.20841957
0.08193375 0.04907665 -0.15823133
-0.11698193 0.27308844 -0.25069911
0.30307069 0.12506300 -0.17940825
0.31014661 0.36157601 -0.26982723
-0.203888 0.21313098 -0.22473067
0.37934853 0.00018900 0.11388949
-0.02332078 0.40215003 -0.28533869
-0.02458049 -0.00158700 0.31380163
-0.18287456 -0.00158700 0.31034222
0.18290367 0.34857781 -0.27391538
0.06775322 0.20405960 -0.20960867
0.31959981 0.23779440 -0.2225055
-0.14534536 0.14697555 -0.18778542
0.29601406 0.03309803 -0.14425002
0.17274879 0.39982463 -0.28444969
0.00969083 0.03006333 -0.14872914
-0.00287037 0.06468516 -0.15632579
-0.10031342 0.19389716 -0.22211301
-0.13994653 0.37671985 -0.27561673
-0.203888 0.32066107 -0.26105177
-0.00961386 0.00159600 0.06268339
0.30755426 0.00159600 0.03365253
0.28394311 0.00112700 0.1895847
0.16749757 0.04074518 -0.15406756
0.33172612 0.00018900 0.19760094
0.28446118 -0.00158700 -0.07267273
0.08861313 0.00159600 0.00120156
0.25843406 0.05532137 -0.15274601
0.02717993 0.15721262 -0.19169906
0.27666438 -0.00075000 0.09896258
0.27048336 0.01412291 -0.13699583
0.19152471 0.00159600 0.02160816
0.30663226 0.19801719 -0.20729866
0.03334516 0.41450777 -0.29118851
0.43895799 0.20281168 -0.20216991
0.16955729 0.40704390 -0.28720962
0.44529301 0.04244434 -0.1377793
0.03917281 0.10059475 -0.18281557
-0.12478324 0.16344999 -0.2100249
-0.07863755 0.16758878 -0.21172489
-0.17078625 0.18580099 -0.21891615
0.17313597 0.22982693 -0.21945953
0.39919177 0.27094319 -0.23517829
0.38131481 0.33676925 -0.2603436
0.36032187 0.01940410 -0.13901483
0.07459587 0.34758464 -0.26447833
-0.0803385 0.13416075 -0.18288632
0.30260457 -0.00158700 0.26685441
-0.10440563 0.24143879 -0.23977557
-0.14688951 0.33987571 -0.27139975
0.12831202 -0.00075000 0.24758641
0.16589275 0.07909498 -0.16183467
-0.15412689 0.23001589 -0.2356588
-0.0359262 0.40239002 -0.28815858
0.13475761 0.14450729 -0.20206232
0.15505675 0.00159600 -0.00210127
0.2812334 0.00112700 0.09740629
-0.0576967 0.00159600 0.03551305
0.27012008 -0.00158700 0.31122372
-0.05019271 0.02306988 -0.14510198
-0.14955021 -0.00158700 0.14577489
-0.0164973 0.19256306 -0.20521354
-0.13118944 0.32264740 -0.25494481
-0.07894694 0.00076092 -0.13333763
0.14878586 0.07555008 -0.17109168
0.1228687 0.00159600 0.09024974
-0.00964883 0.27809411 -0.25230564
0.03776392 0.10551328 -0.17193439
0.39236204 -0.00158700 0.20006905
-0.07699542 0.00159600 0.02120462
-0.09946973 0.07983601 -0.17311764
0.11135127 0.34942669 -0.26518254
0.06273184 0.00112700 0.1629064
0.11460177 0.00843093 -0.13481978
-0.05506438 0.00112700 0.12910172
0.1082093 -0.00028000 0.32093912
-0.04222994 0.00018900 0.20273511
-0.05790103 0.15717782 -0.19168576
-0.1289326 0.04131309 -0.14739064
-0.13534701 0.28491572 -0.24051999
0.37962658 0.00018900 0.02248167
0.4205347 0.20852580 -0.2113161
0.42474387 -0.00158700 0.32471566
-0.16732039 0.24357736 -0.24051381
0.40864254 0.00515876 -0.12352509
0.29030647 0.05487317 -0.15257466
0.18253288 0.06970105 -0.15824337
0.30338845 0.00112700 0.12445312
-0.18519777 0.17178306 -0.19726934
0.34133007 0.08823989 -0.17709015
0.06604041 0.37866581 -0.28214084
0.35092864 0.00112700 0.09361681
0.45047399 0.12554352 -0.18298948
0.31973521 0.00647978 -0.12403012
0.44005245 0.25930456 -0.24594291
0.16723527 0.12336988 -0.19297991
0.15557092 0.16313819 -0.20989384
-0.16175846 0.26664005 -0.24847515
0.19329466 0.00159600 -0.01806794
-0.03385413 0.00018900 0.19689509
0.02347822 0.10722619 -0.18577513
0.40872982 0.25948543 -0.23079798
0.19763563 -0.00158700 -0.07414517
0.45047399 0.30069447 -0.23779609
0.17401496 0.27331477 -0.25077175
-0.02175962 0.01008082 -0.12986257
0.1474487 0.26664234 -0.24847594
0.04918741 0.31257549 -0.25109432
0.12812149 0.16091442 -0.19311426
-0.1187228 0.30254923 -0.24726128
0.30423734 0.25557527 -0.24465554
-0.17701833 0.13215289 -0.18211872
-0.203888 -0.00575335 0.2545102
0.33093047 0.27016942 -0.24969351
0.2140792 0.13720451 -0.19899259
-0.16041692 0.32040263 -0.25408664
0.2666556 0.39359796 -0.28206923
0.407142 0.30980912 -0.26246994
0.3153361 0.00112700 0.06211186
0.35377774 0.39673716 -0.28674514
0.08614976 -0.00158700 0.25347037
-0.01838261 0.13196112 -0.1820454
0.34322223 0.00159600 0.02852921
0.24708251 0.28531571 -0.2406729
0.42587107 -0.00158700 -0.04159172
-0.12772743 0.16172110 -0.20929817
0.19373353 0.23015777 -0.21958601
-0.18835062 0.19555608 -0.22276805
0.17216066 0.09974534 -0.1697293
0.15880169 0.17924929 -0.21632915
0.19180295 0.10865040 -0.18641074
0.33805736 0.00112700 0.13815852
0.14328248 0.10316150 -0.18396109
0.4317281 0.41902758 -0.29231864
-0.11197035 0.16301706 -0.20984292
0.01034871 0.00112700 0.19210134
0.36949539 -0.00158700 -0.09257257
0.05361247 -0.00158700 -0.11562966
0.04439219 0.18673664 -0.2192856
0.23836734 0.00159600 -0.0133772
0.06019449 0.33710840 -0.26047326
0.41002193 0.17288646 -0.19769117
0.43835893 -0.00559469 -0.12998608
0.44311318 -0.00158700 0.06512295
-0.08548279 0.15034293 -0.18907277
0.03696378 0.03077164 -0.14336064
0.37667195 0.40963777 -0.28820126
-0.203888 0.05006451 -0.15052714
0.22892397 0.09083324 -0.17831602
0.20310229 -0.00158700 0.32837457
-0.03499181 0.23368727 -0.23701662
0.42162009 0.28771217 -0.24158907
-0.05675573 0.14472359 -0.1869245
0.10135533 0.21696668 -0.21454305
0.24676771 0.04631247 -0.15684989
-0.10792345 -0.00158700 0.3020305
0.02320426 -0.00158700 0.25045421
0.24316003 -0.00110317 0.203372
0.2299011 0.00074660 0.193762
-0.10411848 0.01132934 -0.13891076
-0.1181364 0.07532934 -0.16039506
-0.11505053 0.00159600 -0.0152662
-0.16281725 0.00676223 -0.13650235
0.14042851 0.00801930 -0.13716524
0.20643006 0.12720192 -0.19469011
0.38856365 -0.00158700 -0.11586689
0.36285913 0.00159600 0.06942997
-0.00304939 0.18599159 -0.20270127
-0.17402436 -0.00443200 0.04869824
0.11317092 0.13823941 -0.1844456
0.3748466 0.25782327 -0.23016254
0.19382109 0.00018900 -0.07172784
-0.1256518 0.17573045 -0.21493971
0.45047399 0.36880559 -0.26626062
0.26653067 0.33912523 -0.2612443
-0.130697 0.00061272 0.08819559
0.31112167 0.00918448 -0.13220725
0.29626759 0.15899546 -0.19238064
0.4023883 0.03414582 -0.15076943
0.02435253 0.00018900 0.20140581
0.26154482 0.38169645 -0.28296935
0.05917568 0.35310182 -0.27515215
0.00456736 0.01856078 -0.13869243
-0.14089745 0.33886281 -0.27109892
-0.07984681 0.39425253 -0.28231948
0.01344847 0.26675944 -0.23357884
-0.02092553 0.17001301 -0.21268212
0.14092049 0.20010036 -0.20809505
0.31898487 0.00138336 -0.12208173
0.29562613 0.14009917 -0.18515659
0.00528941 0.02606256 -0.14156036
0.40609536 0.17933601 -0.20015684
-0.11419115 0.31920352 -0.26526008
-0.13321637 0.22051907 -0.21590113
0.41430666 0.19355763 -0.22197894
0.21684294 0.18988353 -0.20418916
-0.12298788 0.11490472 -0.17552474
0.42034685 0.31487874 -0.26397562
-0.203888 0.09294196 -0.17321824
0.19711107 -0.00158700 -0.10282691
-0.15083607 -0.00158700 -0.01154951
-0.09385915 -0.00075000 0.12150475
0.01338598 0.00159600 -0.03144116
0.4438007 0.18403330 -0.19190855
0.34755341 0.06979194 -0.16836981
-0.0990148 0.02973386 -0.14856448
0.21556183 0.00112700 0.16568869
0.30363627 0.00159600 0.00618487
0.34360026 0.23478335 -0.22135437
0.06106831 -0.00158700 0.297801
-0.00319723 0.20183841 -0.22523761
-0.1968915 0.08828616 -0.15530456
0.17655486 0.26348873 -0.23232844
-0.15179068 0.09649737 -0.1684876
-0.05273075 0.10149742 -0.18321843
0.10088538 0.39329376 -0.28195293
-0.09803075 0.03927405 -0.15333234
0.11987953 0.00018900 0.19808057
-0.17273226 0.05514923 -0.16126619
0.37975371 -0.00472758 -0.13044334
0.37743143 0.08957906 -0.16584274
0.29105477 0.00159600 0.00874052
0.41360145 0.12738493 -0.19477178
0.13288948 0.16090962 -0.20895706
-0.16564765 0.17381648 -0.19804672
0.33796343 0.20758391 -0.21095602
0.17524024 -0.00158700 0.2093961
-0.13142899 0.00256823 -0.1181374
0.101907 0.34072267 -0.26185499
0.25453388 0.34560905 -0.27310256
-0.13757748 0.25454497 -0.24429988
0.39387482 -0.00158700 0.06297207
-0.10865012 0.28042227 -0.25305284
-0.15464342 0.30165262 -0.25986652
0.42025965 0.01109699 -0.12720447
0.23878739 0.00159600 0.01475013
0.41869591 -0.00158700 0.19622217
0.44167554 0.14292172 -0.20139582
0.1439086 -0.00028000 0.30348741
0.42479398 -0.00158700 0.17174575
-0.0362065 0.28007566 -0.2529416
0.17226172 0.30601020 -0.26126505
0.17154868 -0.00158700 0.22853891
0.25346465 0.11624571 -0.1760374
-0.15612615 0.13941438 -0.19992151
0.07148345 0.02285168 -0.14498692
0.3999727 0.34787255 -0.27372258
0.33837548 -0.00158700 0.218846
0.35773578 0.34997946 -0.27429856
0.21845428 -0.00158700 0.25304272
0.32609125 0.12984694 -0.19587056
-0.05888535 0.37481872 -0.28108912
-0.18917578 -0.00158700 0.17068521
0.33251613 0.05195178 -0.15966822
0.0714002 -0.00158700 0.28648998
0.23225968 0.13936955 -0.19990266
-0.18908399 0.15445131 -0.18119077
0.29565168 0.31014724 -0.26257036
0.10581722 0.13883920 -0.1846749
0.26520738 0.20745996 -0.21090863
0.14263075 0.00112700 0.09072125
0.14260662 -0.00158700 0.2371331
-0.17412863 -0.00158700 0.3080829
-0.0662134 0.06781265 -0.1674342
-0.08011706 0.03644142 -0.15191669
-0.06792944 0.00138194 0.10803552
0.39047137 0.28375493 -0.25412243
0.02496605 0.00159600 0.00537779
0.15176306 0.20514180 -0.2100224
0.45047399 -0.00404795 0.29110638
0.30495137 0.00159600 0.02142118
0.09695913 0.00018900 0.19607516
-0.203888 0.22188006 -0.21122003
0.33234361 0.09706291 -0.16870381
0.08395488 0.16078836 -0.19306606
0.15806353 0.00112700 0.14329652
-0.1092824 0.26215634 -0.24692736
-0.15163971 0.01166754 -0.1390891
0.0116117 -0.00158700 0.31412655
0.42794822 0.40214422 -0.28809712
0.05086775 0.00159600 -0.04650968
-0.11180271 0.09391998 -0.16750226
0.27504359 0.06273676 -0.16503483
-0.1890034 0.00147045 -0.12211503
0.42814772 0.08446188 -0.16388643
0.3652871 0.00159600 0.08648052
-0.08238954 -0.00158700 0.32404342
0.00511721 0.30723870 -0.26165933
0.01567461 -0.00158700 0.20743624
-0.18334466 0.34185496 -0.26228787
-0.16714908 -0.00158700 0.23532399
0.05270369 0.10768271 -0.18597887
0.26999934 0.01079602 -0.13862952
0.3529797 0.14332763 -0.18639083
0.44528671 -0.00158700 0.13830042
-0.09800132 0.33549137 -0.27009759
0.1797709 0.05213361 -0.1597591
-0.19510553 -0.00158700 -0.06073786
-0.02086101 0.33621515 -0.26013177
-0.00278813 0.29974115 -0.25925306
0.1854433 0.21904564 -0.21533784
0.03613402 -0.00158700 -0.1017469
-0.18908399 0.17325137 -0.19199271
0.35525676 0.00112700 0.15139594
-0.14086282 -0.00158700 0.14558922
0.06046893 0.02516820 -0.1462085
0.23166064 0.09889550 -0.16940441
0.12611374 0.00154118 0.09704569
0.23566695 0.21854588 -0.23141672
0.28203893 0.34038507 -0.26172593
0.05542118 0.35300641 -0.27512607
-0.04909935 0.20284149 -0.22560859
0.39556073 -0.00158700 0.16670325
0.33434165 0.00159600 0.03958264
-0.13881217 0.00018900 0.04141295
-0.15626073 0.05945806 -0.1634196
0.23873293 -0.00158700 0.32584136
0.41270023 -0.00075000 0.31770295
0.11914077 0.32275741 -0.25498688
-0.06602759 0.00134702 0.1104458
-0.07356153 0.00112700 0.18455372
0.38554967 0.14738907 -0.20327368
0.27968502 -0.00075000 0.10402901
0.3020996 -0.00158700 0.3170665
0.05385556 0.34004141 -0.26159455
-0.18908399 0.38793938 -0.27768735
0.33861472 0.18977833 -0.20414894
0.21186412 0.09545808 -0.18050219
0.12092957 0.00269271 -0.13435634
-0.13005018 0.00192693 -0.12135799
0.05412051 0.02790265 -0.14764931
-0.14002538 0.30826793 -0.24944754
0.39255122 0.39024798 -0.28512258
-0.01324778 0.00159600 0.06784592
0.00795673 -0.00075000 0.10961598
-0.06969342 0.00112700 0.16766003
0.06868317 0.10123030 -0.17029701
0.00486512 0.09077045 -0.17828635
0.08843095 -0.00075000 0.10155683
0.01760487 0.13281702 -0.18237262
0.36330928 0.32446152 -0.25563836
-0.11185285 0.01569474 -0.13759674
-0.10991628 0.21889724 -0.2152811
0.38346574 0.22544066 -0.21778266
-0.04294548 0.00133425 0.11132738
0.28057026 -0.00158700 0.25665888
0.00114687 0.00018900 0.19727117
-0.09719827 0.20752925 -0.21093512
0.32316321 0.09497246 -0.16790463
0.03541574 0.24107622 -0.22376014
-0.12283276 -0.00158700 0.23739639
0.34920404 0.32387877 -0.26664864
-0.06227351 -0.00158700 -0.08094079
-0.17299779 -0.00443200 0.03319602
-0.12511896 0.00159600 -0.03653879
0.2131611 0.00159600 -0.01819408
-0.13355506 -0.00478546 -0.13041281
0.11248991 0.01845185 -0.14266672
0.32884196 0.17671856 -0.19915619
0.40703951 0.30026653 -0.24638861
0.16995971 0.40248541 -0.2854669
0.43895799 0.25845674 -0.2228843
0.34730828 0.18406679 -0.21823139
0.04123301 0.00115211 0.12389814
0.30124369 0.21439172 -0.22988034
-0.203888 0.22450150 -0.23020581
-0.08355915 0.08121121 -0.17376769
0.23353575 0.00112700 0.08143892
-0.16465253 0.33318407 -0.25897299
0.05082614 0.41284472 -0.29077268
0.2135172 0.28674517 -0.24121939
-0.05544495 0.07458990 -0.1706378
0.17326394 0.00198492 -0.12231171
-0.06028986 -0.00158700 0.22135747
0.14510482 0.00122101 0.029467
0.22118101 0.27568430 -0.23699081
0.29456056 0.03307476 -0.14424113
0.16808442 -0.00028000 0.30240526
0.13062734 0.31138596 -0.25063957
0.16491867 0.05886601 -0.16312371
0.12918291 0.41580897 -0.28614096
0.43895799 0.11305768 -0.16552695
0.16462369 0.14771472 -0.18806801
0.16992295 0.00159600 -0.05120559
0.14433028 0.00018900 -0.07209578
0.12313446 0.05868801 -0.16303476
-0.16185559 0.00768007 -0.13698636
-0.16902125 -0.00158700 0.11128266
0.07506127 0.09942766 -0.18229471
-0.15673768 -0.00158700 0.21046434
0.3217978 0.33087598 -0.26872682
0.07724449 0.34497333 -0.26348002
0.16187794 -0.00158700 -0.10604682
-0.10898459 0.20072338 -0.20833323
-0.04800691 0.35877701 -0.26875717
0.09834113 0.00159600 -0.00841678
-0.203888 0.14432520 -0.19323438
0.09373878 0.13976894 -0.18503034
0.17126426 0.26330470 -0.23225809
-0.13425799 0.04879572 -0.15809093
0.45047399 -0.00566537 -0.1168052
-0.0702997 0.24295120 -0.24029766
0.23092079 0.39129898 -0.28538537
0.01192807 0.34795522 -0.27374518
0.39094185 0.15603574 -0.20690831
-0.03775754 0.34779640 -0.26455928
0.22441384 0.08089203 -0.17361682
0.30537784 0.08509307 -0.17560265
0.21603464 0.00159600 -0.04417944
0.03024082 0.04120865 -0.15429918
-0.203888 -0.00198499 0.19071351
-0.00897185 -0.00158700 0.27481151
0.24736907 0.04413106 -0.1557597
0.12050907 0.29210633 -0.24326896
0.13179739 -0.00075000 0.26871269
-0.17981981 0.02749824 -0.14743722
0.01581967 0.29345024 -0.24378274
-0.09700962 0.03063178 -0.14330717
0.09047589 0.00159600 -0.01247948
-0.05192521 0.08940236 -0.16577518
0.13206993 0.21105844 -0.22864756
0.07069316 0.14211200 -0.18592609
-0.12668357 0.05196260 -0.15967363
0.14791156 0.00159600 0.02772523
0.37163085 0.18435010 -0.20207372
0.27938966 -0.00158700 -0.09841562
0.24915083 0.19321867 -0.20546418
0.27645394 0.30544989 -0.26108522
0.17297475 0.00112700 0.16359712
0.28905422 0.00112700 0.17007226
0.07842046 0.18336403 -0.2179539
0.07741976 0.00124906 0.1172069
-0.18197372 -0.00158700 0.23316213
0.17078414 0.30826010 -0.26198714
0.27175109 0.07701877 -0.17178593
-0.00592616 0.00112700 0.16392553
0.38437919 0.41027893 -0.28844637
-0.00623158 0.27944518 -0.2384286
0.1883517 0.16482102 -0.21060122
0.20256449 0.03241329 -0.14990357
0.40889544 -0.00158700 0.26931457
0.33034489 0.21675136 -0.23075303
0.35261574 0.28016856 -0.23870515
0.1516065 0.00112700 0.13687527
-0.18193945 -0.00158700 0.08044207
0.32442139 0.01914591 -0.14303273
-0.08275878 0.31065258 -0.2503592
0.4046528 -0.00158700 0.02868397
0.44924432 -0.00158700 -0.03327512
-0.01991774 0.41611588 -0.28533802
0.30978457 0.11362916 -0.18863271
-0.11169991 -0.00158700 0.27697551
0.09571249 0.21497074 -0.21378
0.15502961 0.35452061 -0.26712995
0.30195264 0.24227231 -0.24006331
0.17367513 0.20523998 -0.21005993
-0.15075611 -0.00158700 -0.07003203
0.17797774 0.40049436 -0.28470573
0.23009914 0.26133723 -0.23150592
-0.08503129 0.31355676 -0.25146946
-0.01737658 0.25464242 -0.24433352
0.41928133 0.41255579 -0.29070043
-0.12161193 0.38171429 -0.28297423
0.01132017 0.10046873 -0.17000586
0.14071984 0.32511685 -0.26701635
0.09343323 0.19641921 -0.22310886
-0.04156845 0.33309822 -0.26938683
0.15155707 0.27695293 -0.25193939
0.09923018 0.15988355 -0.20852575
-0.19762504 0.27314441 -0.22597556
0.43774688 0.16347136 -0.21003389
0.10465806 0.09391864 -0.17977449
0.20508054 0.22226656 -0.23279278
-0.09292689 -0.00158700 -0.08043784
-0.0479579 0.00159600 0.09183019
-0.13243784 -0.00158700 0.21587035
0.03793853 -0.00158700 0.31842105
0.24098627 0.28359741 -0.240016
0.13924774 0.10602916 -0.1852409
0.09725647 0.14326306 -0.18636614
-0.01741674 0.00159600 -0.00681723
-0.12137702 0.00159600 0.0283637
0.16527939 0.36376525 -0.27066418
-0.10336949 -0.00158700 -0.10054456
0.13129589 0.31522107 -0.25210573
0.35769551 0.23307945 -0.23679183
0.09908724 0.08245204 -0.16311807
-0.17141028 -0.00443200 0.06095018
0.13465651 0.00762706 -0.12446874
0.35361117 0.42152602 -0.28270155
0.2158162 0.04796447 -0.14993346
-0.08900026 0.21953451 -0.21552473
0.26455872 -0.00158700 0.31907951
-0.0636803 0.00279823 -0.12262265
-0.03725758 0.33050828 -0.25795003
0.25973357 0.37207353 -0.28033864
-0.15240095 0.41018094 -0.29010663
0.25723511 0.27919131 -0.25265777
0.36616694 0.33780350 -0.2707843
0.16225965 0.00143771 0.10206729
-0.18335291 0.26268404 -0.24710952
0.0800966 0.29233717 -0.25687682
0.10159038 0.03827438 -0.15283274
0.44364109 0.21219292 -0.22906714
-0.00577039 0.23148344 -0.22009281
0.44889151 -0.00158700 0.11823532
0.41462889 0.34860426 -0.27392261
0.44301394 0.30719762 -0.23899399
0.1725702 0.08608545 -0.17607175
-0.07979513 -0.00158700 0.25602494
0.23637195 0.01758247 -0.14220826
-0.00662815 0.15428156 -0.20617094
0.19040095 -0.00158700 -0.0983361
0.27330419 -0.00158700 0.31807645
-0.15339385 0.08976399 -0.16591343
-0.18289403 -0.00158700 0.09738038
0.16678812 0.38310061 -0.28333544
0.39408243 -0.00158700 0.26298332
0.11658204 0.30855180 -0.26208075
-0.09064335 -0.00158700 -0.08795194
0.3144571 0.09974356 -0.16972863
0.14791321 0.17425877 -0.2143586
-0.03395868 0.08921800 -0.1775525
0.13048176 0.00117671 0.12220005
0.35591658 0.00391475 -0.1230495
-0.00371378 0.42156143 -0.28271509
-0.03002028 0.00112700 0.16411098
-0.04183438 0.35044455 -0.26557168
0.38692646 -0.00158700 -0.0715284
-0.17946297 -0.00158700 0.06419281
0.12019588 0.01539548 -0.13748233
0.32653305 -0.00158700 -0.08367003
0.13933999 0.04094023 -0.15416504
0.20274968 0.24286400 -0.22444361
0.07867546 0.00159600 -0.05710923
0.03248103 0.00159600 0.04539072
0.1039995 0.00159600 0.06457994
-0.05631348 0.03202107 -0.14970755
0.00412468 -0.00158700 0.31216927
0.04633023 0.25499437 -0.22908105
0.11189164 -0.00158700 0.23752087
-0.11595919 0.42034352 -0.28945324
-0.1333533 0.12701830 -0.18015576
0.42017282 0.00366584 -0.1348695
0.36372484 0.35343667 -0.2752437
-0.03146498 -0.00158700 0.25636485
0.2544517 0.20197317 -0.22528745
-0.174119 0.18338116 -0.2017033
-0.14936053 0.42128392 -0.28699303
0.08517976 0.38301908 -0.28331506
-0.06864589 0.04664531 -0.15701623
0.20585807 0.10511721 -0.17178297
0.16421711 -0.00158700 -0.07585992
0.22980155 0.00996261 -0.13017179
0.30351222 0.01997404 -0.14346943
0.35683584 0.23413087 -0.22110492
0.06334467 0.38349241 -0.28343341
0.01570352 0.04575355 -0.15657056
-0.19258333 0.12366619 -0.19311215
-0.03638149 0.18969565 -0.220454
0.40101231 0.29751472 -0.2585385
0.13678954 0.14500309 -0.18703135
0.20159367 0.09323478 -0.17945123
-0.10040253 0.32238122 -0.25484306
0.17889356 0.39571859 -0.28287995
0.22827459 0.20194927 -0.20880189
0.27290621 -0.00158700 0.22118716
0.37855135 0.09601308 -0.18076453
-0.10294581 0.35920306 -0.26892005
0.18557425 0.00159600 -0.04998393
0.20029268 0.17693333 -0.21541467
0.11973846 0.00159600 0.06740596
0.37859495 0.00018900 0.14735588
0.43857149 0.41729912 -0.28224252
0.09221034 0.41804051 -0.28136893
-0.07338203 0.32631079 -0.26737095
0.25075882 0.10473836 -0.17163814
0.0355002 0.10504990 -0.18480387
0.42233738 0.18885262 -0.20379504
0.24712111 0.00159600 -0.00329397
0.35299943 -0.00158700 0.29347221
0.12052799 0.00159600 0.08334524
0.39536086 0.15457798 -0.19069184
0.00996636 0.00112700 0.1377273
0.09924052 0.34160274 -0.26219145
-0.01868122 0.31227920 -0.25098105
-0.00750898 0.04612739 -0.1567574
0.05834575 0.00140162 0.10667786
-0.19145716 -0.00158700 0.01427504
0.3752764 0.34460930 -0.27280563
0.07784609 0.00159600 -0.01748795
0.29067623 0.12282380 -0.1927362
0.41406862 -0.00574834 0.32840499
0.21923433 0.00128333 0.09537992
0.20093304 -0.00075000 0.11394675
0.21814508 0.00112700 0.18772399
0.41412525 -0.00617566 0.32840499
0.44160287 0.22633293 -0.23429669
-0.01947646 -0.00097756 -0.11734241
-0.09439547 0.00018900 -0.071348
-0.16758775 0.17680102 -0.21536243
0.24949611 0.25691618 -0.24511843
0.28398446 0.00159600 -0.01501541
0.14723299 -0.00075000 0.27258531
-0.14189788 -0.00158700 -0.09305957
-0.07455482 0.15848812 -0.20793918
0.31225719 0.01853020 -0.13868074
0.06228817 0.04747672 -0.15743174
0.13034975 0.36459682 -0.27098209
0.39522268 -0.00025469 -0.13280206
0.40987868 -0.00158700 0.23008255
-0.08319881 0.39231227 -0.28563873
-0.09757096 0.31876478 -0.26512978
-0.03017087 -0.00158700 0.23414411
0.17505718 0.42203282 -0.28503378
0.18444918 0.13004614 -0.19595946
-0.05937948 0.31259366 -0.26329695
0.33108897 0.31055162 -0.26269046
0.21295386 0.00112700 0.16951622
0.29083673 0.00159600 -0.01964345
0.15843814 0.40643488 -0.28916996
0.44482099 -0.00158700 0.11815567
0.02504389 0.10882091 -0.18648683
-0.04892843 0.25090603 -0.22751807
0.39616738 0.02888495 -0.14263936
-0.00995707 0.00159600 0.07825771
0.43862234 0.27993254 -0.25289567
0.12824069 0.03328293 -0.15033818
-0.11655957 0.01886288 -0.13880792
0.43394984 0.36948820 -0.27963186
