# .PCD v0.7 - Point Cloud Data file format
VERSION 0.7
FIELDS x y z
SIZE 4 4 4
TYPE F F F
COUNT 1 1 1
WIDTH 1373
HEIGHT 1
VIEWPOINT 0 0 0 1 0 0 0
POINTS 1373
DATA ascii
-0.03363965 -0.48842553 -0.13558224
-0.03758237 -0.51460600 -0.29224247
0.05297051 0.30268273 0.13163047
0.0907552 -0.49978583 -0.15811068
-0.01987567 -0.38657517 -0.16092085
0.0115691 -0.49614929 -0.07498439
-0.01671717 -0.12266770 -0.15797688
-0.03828755 0.27863996 -0.21695821
-0.04217748 0.27786343 -0.25423711
-0.04140953 -0.51279900 -0.29361523
-0.06689617 -0.49085460 -0.19966515
0.02666819 0.29506942 -0.05612552
-0.00260199 0.30462025 0.15406306
0.01952564 -0.51460600 -0.18303503
-0.00502167 -0.51460600 -0.06050816
-0.02191003 -0.09843526 -0.16585411
-0.00102936 0.29001121 0.13960184
-0.07567196 -0.49969360 -0.08616186
0.00838841 0.29840033 -0.12115428
-0.11436399 -0.49991201 -0.1596746
-0.00424677 0.26326297 0.16330469
-0.11901721 -0.51460600 -0.20801152
-0.00182054 -0.48788594 -0.14994323
-0.00682153 0.15561189 -0.1574241
-0.1050762 -0.51144634 -0.08943833
-0.01480925 -0.46767096 -0.15698253
-0.0075819 -0.51460600 -0.12667221
-0.03053605 -0.51460600 -0.18739689
-0.00170375 0.01423785 -0.16817271
-0.1132146 -0.50553539 -0.10505574
-0.01975411 -0.18548794 -0.16071987
-0.04554534 0.29983041 0.16403335
0.03254745 -0.51460600 -0.2587188
0.01187286 0.27656536 -0.10990394
-0.01477873 -0.39726623 -0.15697299
-0.01365038 0.08323108 -0.17787783
-0.01074384 -0.34489027 -0.17782858
-0.00642726 0.28869017 -0.18541527
-0.1226366 -0.51460600 -0.19261847
-0.10187185 -0.51460600 -0.12773183
-0.0115553 -0.02664151 -0.17786646
-0.03646681 -0.51460600 -0.26553733
-0.09753253 -0.51460600 -0.23988321
0.09104504 0.28834956 0.10661845
-0.04540874 -0.49739560 -0.0756347
-0.02198212 0.28900125 -0.16713305
-0.01067666 -0.48799186 -0.15386499
0.05611873 0.30382011 0.14064468
-0.05344313 -0.51460600 -0.13475661
0.02381753 -0.51460600 -0.1605735
-0.03716768 -0.51460600 -0.25035584
0.00039483 0.30069787 0.18593316
-0.04288271 0.28680957 -0.26964682
0.09968011 0.29590179 0.1263197
-0.01037064 0.14391147 -0.15629857
0.0763345 -0.51460600 -0.1524878
-0.02129436 -0.07062952 -0.16364648
-0.00726706 -0.13459457 -0.1764491
0.00255238 0.28239857 -0.11021023
0.0317902 0.29987971 0.13340661
-0.0633409 -0.51460600 -0.23258823
0.01051392 0.30543290 0.1479878
0.00521156 0.30262175 0.16548228
-0.00257609 0.08306231 -0.16202394
-0.01934023 0.29494895 -0.20579731
0.07439588 -0.51460600 -0.19940842
0.03065846 -0.50380926 -0.27868988
-0.03236068 -0.49015852 -0.11259266
0.05211609 -0.51460600 -0.08206914
0.08413429 -0.50477303 -0.23431942
0.00732011 0.29593447 -0.10534922
0.1184888 0.28780468 0.12236308
-0.0054392 -0.33151347 -0.17512804
0.00797298 -0.50580692 -0.03849339
-0.00235199 -0.45066213 -0.1624506
-0.03817534 0.30674889 0.15743438
-0.01310516 -0.48789036 -0.19075417
-0.0940609 -0.51460600 -0.17332683
0.08078622 0.29408384 0.07653494
0.08765051 -0.51460600 -0.18474118
-0.0086199 -0.37498188 -0.1771649
0.09217427 -0.51460600 -0.16410742
-0.02105391 -0.11907826 -0.17224301
-0.03229252 0.28355631 -0.24226209
-0.01146378 0.27135080 0.14572826
0.00336613 0.29716763 0.14044866
-0.00521048 0.16856310 -0.1748857
-0.05660441 -0.51460600 -0.12901698
-0.03915435 0.28950516 -0.26021672
0.07504358 -0.51460600 -0.15875103
-0.01599959 0.08858883 -0.17727678
-0.0716023 -0.50237494 -0.26972229
-0.07344254 -0.51460600 -0.13816476
0.00320131 0.27757207 0.16809361
-0.03382492 -0.50746966 -0.29555328
-0.00474873 -0.34467294 -0.15893077
0.0323421 0.27388924 0.16092778
0.00929176 -0.50059720 -0.27483775
-0.02567266 -0.49128346 -0.23451838
-0.00163436 -0.29028931 -0.16571188
0.03740664 -0.51460600 -0.23515654
0.0409186 -0.49325760 -0.10658476
-0.01422836 -0.23219934 -0.17772995
-0.07304414 -0.51460600 -0.1484147
-0.0597401 -0.49494560 -0.09686559
-0.07221957 -0.49220335 -0.20823746
0.09432767 -0.51460600 -0.22205069
-0.0019528 0.00704150 -0.16910784
-0.0431816 -0.51460600 -0.24471922
-0.04676919 0.29006110 0.17907761
-0.01433283 -0.49215487 -0.24090476
-0.02070887 -0.47195367 -0.16240119
-0.00906525 0.28488113 -0.1499268
-0.05640808 -0.48920938 -0.15175702
0.06528802 -0.49370533 -0.17669715
-0.02920108 0.27514502 0.14392218
-0.01061969 -0.41221707 -0.1563062
-0.00201475 -0.11284623 -0.16933058
0.00855873 0.29822090 -0.12401344
-0.06559278 -0.50343782 -0.27719058
-0.00164151 0.16692362 -0.16596534
0.04975817 -0.51460600 -0.05782024
-0.11737998 -0.50377039 -0.12282101
0.06622967 0.27680098 0.02580561
-0.01501516 -0.06420931 -0.17752865
-0.02851349 -0.50261962 -0.28587624
0.01738286 0.27684436 -0.09149653
0.01983269 -0.48922787 -0.20312632
0.0292892 0.30571924 0.15186485
-0.09568306 -0.50471748 -0.08462001
0.07941142 0.29838368 0.12572974
0.05248778 -0.50054454 -0.07462055
-0.00200008 0.15426492 -0.16927782
-0.12809022 -0.50414320 -0.17739582
-0.0206428 0.26883644 0.1460874
-0.00582798 0.27876597 0.14311299
0.09226785 -0.50069459 -0.18176105
-0.00113239 0.26732609 0.15810734
0.00815687 0.28450638 0.17910281
0.05649845 0.27571206 0.15034946
0.03998957 -0.51460600 -0.20432805
-0.01912 0.27666209 -0.18306959
-0.01649855 0.10489335 -0.17699194
0.03033968 -0.49210911 -0.10580747
-0.02163582 -0.09601529 -0.17057694
0.06095783 -0.51460600 -0.17474265
-0.12484915 -0.50332025 -0.1539586
-0.08290105 -0.49428251 -0.21194679
0.00126957 -0.51460600 -0.07985786
-0.08366758 -0.51293163 -0.06675613
-0.04774484 0.29500248 -0.27436981
-0.11036224 -0.50086320 -0.13045817
0.05569739 0.28476231 0.12042647
-0.05024316 -0.49010055 -0.12682684
-0.01797337 -0.03638864 -0.15883308
-0.1066909 -0.50453661 -0.09933597
-0.02724927 -0.48941908 -0.11755735
0.05959951 -0.49321444 -0.18794475
0.05220148 0.27658196 -0.01490826
0.03245863 0.29236103 -0.0376612
-0.11373668 -0.50331479 -0.11902653
0.04657978 0.27963654 -0.00864384
0.10017296 0.28079042 0.08177805
-0.11296329 -0.51460600 -0.17495392
-0.04003395 -0.51460600 -0.06881645
-0.07509906 -0.49364164 -0.21947338
-0.02883795 -0.51460600 -0.17678612
-0.01495866 -0.16834803 -0.15702922
0.00618361 -0.49358321 -0.08647056
0.00867529 0.29382152 -0.09731733
0.03559802 -0.51460600 -0.05036343
0.01258557 -0.49042212 -0.22170494
-0.02624586 -0.49075769 -0.10534393
-0.03110038 -0.51460600 -0.082204
0.06982672 0.27767065 0.13597853
-0.00546248 0.17462913 -0.15822772
-0.07317765 -0.50613135 -0.28173466
0.06450809 -0.51460600 -0.08364462
0.04066212 -0.49956725 -0.25625691
0.01629103 0.28092451 -0.07938099
-0.03816964 -0.51460600 -0.17950904
-0.02196968 0.15303331 -0.16668039
0.00794137 -0.49184273 -0.23454738
0.04011602 -0.50027010 -0.06841619
-0.00738559 0.29445502 0.19485393
-0.05317439 -0.50861705 -0.29060903
-0.02192507 0.28821411 -0.18169754
-0.0409977 -0.49417782 -0.24823094
0.03517312 0.29667770 0.16351222
0.03454766 -0.51460600 -0.166802
0.02959318 -0.51460600 -0.04461234
-0.02098279 -0.45065977 -0.16288785
0.09042676 -0.51460600 -0.16102957
0.0018233 -0.50487603 -0.04146828
0.0560516 0.28402035 0.12040947
-0.02154676 -0.27845172 -0.17097082
0.08810384 -0.50414377 -0.2235732
-0.01295246 -0.48798769 -0.19644639
0.07737695 -0.49829167 -0.1202188
-0.02003571 -0.51460600 -0.25548409
-0.00834876 -0.35473619 -0.17708017
0.02231499 0.27244323 0.13962805
-0.08751665 -0.51460600 -0.27284846
-0.01931275 -0.37965562 -0.16025223
0.0728504 0.29191745 0.01239954
0.0061016 0.28136048 -0.14670252
-0.06790126 -0.51460600 -0.14662981
-0.00221799 -0.51460600 -0.10420105
0.10610495 -0.50763582 -0.12962964
-0.01494747 -0.02938259 -0.17754597
-0.0029203 -0.34292803 -0.17177213
0.06998541 -0.51460600 -0.16567088
-0.04154365 -0.48938801 -0.21127197
0.00193613 -0.48857228 -0.20676773
-0.05579069 0.28256086 -0.25109977
-0.06142302 -0.51080356 -0.05259429
-0.02875599 -0.48793208 -0.14926565
0.00111474 -0.51460600 -0.27989735
0.07864375 -0.49669255 -0.17792934
-0.06671934 -0.50046413 -0.26484586
-0.04505924 -0.48821056 -0.16229005
-0.00592923 0.27071726 0.18846422
0.00316261 0.28594176 -0.15483341
0.00984041 -0.48798112 -0.1479558
-0.01057775 -0.43752870 -0.15630492
-0.02323786 0.27677409 -0.190983
-0.026067 -0.51460600 -0.11424116
0.00148832 -0.51460600 -0.26328113
0.05899687 -0.49265137 -0.14667465
0.00222239 -0.50335393 -0.04615533
0.04849039 -0.51460600 -0.14708209
0.06247413 -0.49463609 -0.12484912
0.05938613 0.27182570 0.14142506
-0.02348108 -0.49183637 -0.09717968
-0.03810384 0.28528859 -0.20604798
-0.02837256 0.31340473 0.15979524
0.05811127 -0.49716261 -0.09798888
0.01036411 -0.51460600 -0.10063778
-0.10908997 -0.51460600 -0.21667392
0.06625934 0.29821713 0.01541604
0.00717164 -0.51460600 -0.08945015
-0.01379902 0.30335386 -0.17406474
9.751e-05 -0.51460600 -0.09242701
-0.01098536 0.24961354 -0.15631741
-0.0393211 -0.51460600 -0.05411263
-0.02181197 0.13977641 -0.1655025
-0.12250932 -0.50364694 -0.20600385
-0.01469574 0.27840478 -0.16066189
-0.04557915 -0.51460600 -0.29113666
-0.12185512 -0.51153258 -0.22851063
-0.07884299 -0.51460600 -0.24846229
0.01327182 -0.51460600 -0.20240851
-0.01746272 -0.48900036 -0.21519987
-0.03436587 0.29674496 0.19229706
-0.10402791 -0.49691669 -0.17962092
0.00157106 0.30693601 0.16345243
-0.00929651 0.27649314 0.19415853
-0.00587483 -0.51460600 -0.15398799
0.02026461 0.30462928 0.16195561
0.03980352 0.28163046 0.16272132
0.02232401 -0.48987899 -0.20933465
-0.00947383 0.20835388 -0.15647598
-0.01479748 -0.11212978 -0.15697885
-0.01992079 -0.19836039 -0.17421084
0.08999427 -0.50079319 -0.13014661
-0.08201434 -0.51460600 -0.27506187
0.04780162 -0.49057071 -0.15742983
-0.02341534 -0.51460600 -0.12191375
-0.02099189 -0.13228682 -0.17236101
-0.05688092 -0.51460600 -0.05962551
-0.02744018 0.27675329 -0.21057456
-0.02368142 0.31561630 0.17346323
0.05989091 0.29819569 0.01054182
0.00048087 0.27176812 -0.16871421
0.08955969 0.27978355 0.11575111
-0.04950099 -0.49171031 -0.11054196
-0.0235832 0.30990345 0.18675637
-0.0209292 -0.11318989 -0.17248027
-0.05822412 -0.48999799 -0.20125581
-0.00196634 -0.16415360 -0.16915653
-0.10476513 -0.51460600 -0.09735414
0.0676632 -0.49640508 -0.20700054
0.06909052 0.28128489 0.00572024
-0.01510834 -0.25368350 -0.17750481
0.00013983 0.30885607 0.16643704
-0.07360273 -0.51460600 -0.08767423
0.01486494 -0.49867236 -0.06510625
0.06024568 -0.51460600 -0.19588772
-0.00359764 0.18022911 -0.1729747
-0.01717353 -0.01255670 -0.15826517
0.07865568 0.28940025 0.13862977
-0.07757229 -0.51460600 -0.08711909
-0.01370273 -0.14747871 -0.17786444
-0.08251597 -0.51460600 -0.08812561
0.00289469 0.30055050 -0.16287868
0.04661971 -0.49067172 -0.14801781
-0.01742916 -0.30829817 -0.15842666
0.00757308 0.28825599 0.13644556
-0.00687809 -0.35040183 -0.15739065
-0.01953547 -0.27049473 -0.17461966
-0.02787173 0.29374726 0.19624216
0.00175275 0.29503799 0.16459035
-0.01274883 -0.40001435 -0.17790303
0.02132946 -0.50003812 -0.06145043
0.05187215 0.28147838 -0.0362642
-0.00774583 -0.32447541 -0.15691808
-0.05920208 -0.51460600 -0.2663521
-0.01030029 -0.51460600 -0.28654994
-0.0216777 -0.22101555 -0.1703917
-0.01790129 -0.09829129 -0.15875671
0.07988944 -0.49813674 -0.12812764
0.02464171 -0.51460600 -0.11140915
0.07307233 0.29011147 0.06260992
-0.00761447 -0.46079492 -0.17666858
-0.02072023 0.26870417 -0.1728778
0.0340271 -0.48907024 -0.1718019
0.04613538 -0.51460600 -0.06015998
0.00808755 0.29702353 -0.13340193
0.08556026 0.27656561 0.06824862
-0.07735467 -0.51460600 -0.14974447
0.07996333 -0.51460600 -0.23559467
-0.05863478 -0.51460600 -0.19125981
0.04481418 -0.49225058 -0.20796631
-0.02633538 -0.51460600 -0.17128487
-0.07281797 -0.51460600 -0.2116378
-0.00946146 -0.47465517 -0.15647915
0.02451554 -0.49693247 -0.07470613
-0.12595875 -0.50508395 -0.21004732
0.04917145 0.27301690 0.15046605
-0.0194789 -0.47712109 -0.17467968
0.08154472 0.29520050 0.07630347
0.06669987 0.28069340 0.12446912
-0.06073861 -0.51460600 -0.12015875
-0.01535479 -0.43439225 -0.157153
-0.02219864 -0.51460600 -0.06754251
-0.00776243 -0.01631915 -0.17676205
-0.00178005 0.29971614 0.1560495
-0.02910452 -0.51460600 -0.20886714
0.03258305 -0.49404099 -0.09453481
-0.06404995 -0.51460600 -0.21661944
-0.12653192 -0.51460600 -0.14758521
-0.03589337 0.28178580 0.14505318
-0.0018206 0.07275603 -0.16451772
-0.09952729 -0.51460600 -0.19776907
-0.04446747 0.27983943 -0.2661532
0.0182736 -0.49202098 -0.23078176
-0.02147532 -0.42366047 -0.16429536
-0.03395557 -0.49027568 -0.11247544
0.02971441 -0.49175958 -0.22078363
0.09402421 -0.50209233 -0.1284119
-0.00756695 -0.28015052 -0.15698332
0.07804522 -0.51460600 -0.1938971
-0.06281812 -0.51460600 -0.28698817
-0.02188461 -0.49467763 -0.08055717
0.03177749 -0.49094337 -0.21122168
0.03419257 -0.50012962 -0.26255413
0.06457132 -0.51428016 -0.06138584
-0.01439934 -0.50831128 -0.29565848
-0.0016832 0.20182897 -0.16744401
0.09575699 -0.50977740 -0.22046229
0.08407174 0.28745724 0.03707511
-0.02547041 -0.51460600 -0.15460523
-0.02067893 0.28804657 -0.16234799
-0.00439465 -0.49050314 -0.10451883
0.00727807 -0.49426696 -0.24881862
-0.13277821 -0.51282744 -0.15913554
0.07176459 -0.50286523 -0.24202162
-0.00165404 -0.01507835 -0.16640979
-0.01846218 -0.17432574 -0.17575842
-0.0750789 -0.49137929 -0.18596497
-0.01003028 -0.48596498 -0.15633361
-0.00194985 -0.50532698 -0.0401915
-0.09116958 -0.49444349 -0.19157177
0.05474172 0.29737855 -0.01854003
-0.06809807 -0.49031282 -0.1577827
-0.02196414 -0.09618014 -0.16647899
0.03907572 0.27686193 0.16028144
0.02285102 0.26960133 0.15812477
-0.0557419 -0.51460600 -0.22604932
-0.00601805 -0.48843721 -0.2065246
0.09055328 0.29349117 0.10124428
0.06472518 0.29539165 0.12668471
0.0560749 0.28363887 0.12045452
-0.00563913 -0.48800905 -0.15648251
-0.02127965 -0.11294940 -0.16359374
-0.02826217 -0.51460600 -0.13631417
0.06727998 -0.49468985 -0.18707368
-0.02132404 -0.03239664 -0.1637529
-0.01965953 0.27492970 -0.17448803
-0.01426907 -0.06082949 -0.17771954
0.09137944 0.27799227 0.1174521
0.09008266 -0.51460600 -0.1909865
-0.05759252 -0.51460600 -0.15635435
0.06724732 0.29807084 0.12934835
-0.10975896 -0.50731905 -0.25042534
0.02402828 0.28037149 -0.06169539
-0.01079919 0.29750178 -0.15535886
-0.0463998 -0.51460600 -0.1039459
0.00719803 -0.51460600 -0.28565275
0.05643031 -0.49668632 -0.09897534
-0.02089539 -0.47858023 -0.17254458
-0.1182895 -0.51460600 -0.18252413
0.00821805 0.29525007 0.1742238
-0.08485976 -0.51460600 -0.24784308
0.03405988 -0.51460600 -0.11901737
0.02110605 -0.51112259 -0.28878434
-0.02384494 -0.51460600 -0.25416951
-0.04385474 0.28962564 0.18500474
0.0685338 0.28764777 0.11571851
0.04156286 0.30500633 0.1451217
-0.04329408 0.30445591 0.16677238
-0.01151822 0.26468581 0.18509631
-0.05031177 -0.49804624 -0.07582885
0.06950883 -0.50105195 -0.23597766
0.04130625 0.29344438 0.12618038
0.0559037 -0.50283025 -0.25867903
0.06458371 0.28977836 0.12014968
-0.01180101 -0.30708356 -0.17787398
-0.02605472 0.28046344 -0.17043048
-0.06849478 -0.51460600 -0.27740267
-0.03655993 -0.51460600 -0.2804253
0.02795445 0.28248318 -0.09553743
-0.00359276 0.05291485 -0.16015725
-0.00470977 -0.40062624 -0.15897211
-0.0186591 -0.38883721 -0.17554949
-0.0993394 -0.51460600 -0.21191265
-0.04295778 -0.49531350 -0.08436272
-0.00197926 -0.29029496 -0.16381829
0.10664629 0.27677653 0.1173635
-0.02178297 -0.33344453 -0.16992612
0.10270488 -0.51460600 -0.17902704
0.0063744 -0.48918532 -0.11944426
-0.01415575 0.29206676 -0.19779943
0.02082203 -0.51460600 -0.18436031
0.07682292 0.29938470 0.13926218
-0.017859 0.08763312 -0.1761875
0.03897626 0.27785259 -0.03298165
0.06093092 -0.51043855 -0.05923211
-0.06341048 -0.51460600 -0.14722179
-0.01608127 -0.33446770 -0.17723868
-0.03299493 0.30812809 0.18403026
-0.01179315 0.18475389 -0.17787374
0.08826996 -0.51460600 -0.18661761
-0.00361835 -0.47398250 -0.17301146
-0.00077506 0.30938321 0.17335466
-0.01720254 0.30332905 0.14449791
0.02382357 -0.49381472 -0.09078057
0.04473438 -0.51460600 -0.21079627
0.04991135 -0.51460600 -0.08150709
-0.01686129 -0.46989732 -0.17677745
0.10759376 -0.50801666 -0.13619983
-0.03440696 0.28417638 -0.24799245
-0.01916475 -0.49702181 -0.26512932
-0.03065681 -0.51460600 -0.25968039
-0.01554984 0.13476498 -0.17739185
-0.11589843 -0.50125230 -0.20104313
0.01927815 -0.51460600 -0.26054577
0.01328691 -0.51460600 -0.14116733
0.0468652 -0.51460600 -0.25868636
0.05000947 -0.51142820 -0.27388824
0.08922452 -0.50461022 -0.09720059
-0.02045091 -0.39691554 -0.17339015
0.02744283 0.28268394 -0.09697459
0.01174735 -0.51460600 -0.24905605
0.02701899 -0.48858135 -0.15221947
-0.00330994 -0.27272027 -0.16062679
-0.10954448 -0.51460600 -0.24047519
-0.03285638 0.29195464 0.19458656
0.03288923 -0.50082605 -0.0618814
-0.006207 -0.08975706 -0.17577943
-0.01947365 -0.50288422 -0.28641675
-0.01411288 -0.51460600 -0.08232395
0.00811664 -0.51460600 -0.22419106
-0.01900579 0.19345879 -0.17518165
-0.05284309 0.29724592 -0.25551157
0.07463524 -0.51460600 -0.09008804
-0.00655665 -0.37549417 -0.15758073
0.01657992 0.29734744 -0.11098305
-0.00975677 0.30035717 0.14448906
0.05504554 0.28436254 0.15597381
0.0564808 0.28757406 0.15571749
-0.10999072 -0.51460600 -0.21195408
-0.01930555 -0.32600841 -0.1748636
-0.00358589 -0.37256279 -0.17295383
-0.03641539 -0.48883546 -0.13048492
-0.01781709 -0.01213546 -0.15867174
0.04164147 0.28161273 -0.01682432
-0.00106333 -0.48994223 -0.10973233
-0.00043066 0.30313468 -0.17091773
0.03677822 0.30339511 0.15504802
0.07959386 0.27787763 0.14035557
-0.00315965 0.21376827 -0.17219709
-0.00380161 0.29926745 0.15116402
0.04933319 -0.49989653 -0.07538796
0.03837284 -0.49536522 -0.23807159
0.05295075 0.27971413 0.00700301
0.00211822 -0.49409672 -0.08255204
0.07001954 -0.51460600 -0.21926906
-0.06794489 -0.50115890 -0.26694423
-0.01544775 -0.29208222 -0.15718204
0.01963611 0.30262030 0.14047808
0.004161 0.28226055 -0.10645886
-0.12670279 -0.51175015 -0.21807969
0.11561398 0.29602404 0.11065046
0.09710659 0.29084579 0.13070468
-0.0212831 0.11585972 -0.17180702
-0.00892952 0.27684026 -0.16740816
0.05234716 0.29270157 -0.03638772
-0.03407027 -0.49046996 -0.11068233
-0.00370021 0.00361317 -0.16004325
-0.0239529 -0.51460600 -0.14877361
-0.06268662 -0.51460600 -0.05754308
-0.02115788 -0.30363082 -0.16319892
0.08709129 0.28956910 0.09667413
-0.01714223 -0.51460600 -0.24255581
-0.00229763 -0.24076732 -0.17034752
-0.001652 0.30118436 -0.17387081
-0.06192803 -0.49669113 -0.08924465
-0.02097234 -0.48845483 -0.20702187
-0.0128566 0.20686656 -0.17790633
0.07822716 -0.51460600 -0.15235005
-0.01281024 0.17151962 -0.15637333
0.096437 -0.51460600 -0.17155418
-0.00125128 -0.48789821 -0.18774755
-0.08048885 -0.51460600 -0.1314737
-0.00237184 -0.06451473 -0.17061431
0.07735639 0.27697328 0.03991993
0.02966283 -0.49496252 -0.24149823
-0.08446555 -0.49941150 -0.0968388
0.03491492 -0.50011674 -0.06596236
-0.07789387 -0.51460600 -0.14188643
-0.00183798 0.25525213 -0.16444111
-0.00215579 -0.39796084 -0.16304006
-0.00562873 0.27732970 0.14674591
0.06391525 -0.49329262 -0.15341285
-0.02917334 -0.50759425 -0.04056718
-0.00958604 0.28762715 -0.1868686
0.10394681 -0.51031303 -0.12010574
0.07935765 -0.50502402 -0.24313232
-0.05028235 -0.48979096 -0.13046506
-0.02199199 -0.07027351 -0.16749188
0.00289948 -0.51460600 -0.27251372
0.09010307 -0.51460600 -0.12637313
-0.06357231 -0.50045082 -0.26665363
-0.00565114 -0.50321668 -0.04682001
-0.01875492 -0.39561456 -0.15966118
0.0765936 0.28622932 0.13952998
0.00091013 0.29699742 0.14993189
-0.03586469 0.28004859 -0.2457408
0.06556244 0.29365277 -0.0029335
0.07286513 0.27734184 0.14334883
0.04984584 0.28239421 0.00412306
-0.00342975 -0.04539150 -0.16039868
0.00368098 0.28679466 0.18724832
-0.00739213 0.21038885 -0.1570867
0.06561085 0.27920238 0.03600009
0.01771891 0.29848441 -0.097064
-0.05463295 -0.51460600 -0.27203077
-0.09315816 -0.51460600 -0.17713475
0.04214229 0.29681207 0.12762493
0.01162681 -0.50468750 -0.28781027
-0.0111407 -0.20099101 -0.17785375
0.09494141 0.29730970 0.0782457
0.00946588 0.28288617 0.1697377
0.08562854 0.28789902 0.09366577
-0.00313432 -0.07276986 -0.17215211
-0.12630965 -0.50358019 -0.17233661
0.00215571 0.27742718 -0.1445228
0.02170431 -0.48823344 -0.17241785
-0.01911564 -0.11107029 -0.1750651
-0.01729785 -0.39347924 -0.15834371
0.03892973 -0.49028289 -0.19206783
0.03584572 -0.51460600 -0.12385841
0.09955954 -0.50264596 -0.175305
-0.02130241 -0.18877362 -0.16367534
-0.0012208 0.27396660 -0.16031059
-0.11672037 -0.50820219 -0.10897605
0.03943879 -0.51460600 -0.0492843
0.04999276 -0.49145109 -0.13988317
0.01745754 0.30583999 0.14739969
0.03901259 -0.50927094 -0.28083739
0.02101911 -0.49041797 -0.11412743
0.07927124 -0.51460600 -0.11060887
0.08257174 -0.50141745 -0.10617135
-0.05149931 0.27862041 -0.24896093
-0.02195672 -0.30096034 -0.16620904
-0.00092586 -0.51460600 -0.26511955
-0.02612372 0.27881376 -0.18700358
0.08432773 0.29816127 0.07024831
0.05038707 0.29628977 0.15607928
0.08883131 -0.50467203 -0.09604983
-0.08199701 -0.49965152 -0.25009297
-0.01258019 0.30477003 -0.16907006
-0.05741935 -0.48916094 -0.18235723
-0.0040447 -0.46454981 -0.15967775
-0.00636103 -0.05662299 -0.1576964
-0.01108448 0.30123337 -0.15599621
-0.00313223 -0.11234242 -0.17214841
-0.05274877 -0.50576836 -0.29020354
0.06578252 0.28920232 -0.00661519
-0.0059162 -0.46456372 -0.17559572
0.02316159 0.27710856 -0.07553606
-0.00240079 -0.13595723 -0.17071839
0.0521129 -0.50435333 -0.26703949
0.07778616 0.29116767 0.14192817
-0.0269095 0.30979379 0.15153645
0.02842292 0.30041999 0.16380257
0.02544786 0.27718967 -0.08683192
-0.00167556 -0.19971166 -0.1671731
-0.00785692 0.28375577 0.14192769
-0.02380991 -0.51460600 -0.22305799
-0.07824648 -0.51460600 -0.23641507
0.0921315 -0.50452430 -0.2186556
0.00264832 -0.49581296 -0.07429993
-0.06232454 -0.50411835 -0.28159211
-0.04213298 -0.51460600 -0.09944508
-0.00565268 -0.41723438 -0.15811525
0.10495635 -0.51460600 -0.1749712
-0.07175256 -0.51460600 -0.18441126
-0.03517621 -0.51460600 -0.14100811
-0.00717308 0.23512557 -0.15721622
-0.01845724 -0.49169357 -0.23799633
0.01135563 -0.48958630 -0.11667407
-0.00466959 -0.49393764 -0.25047823
0.00306228 0.29412250 0.15134896
-0.00276398 -0.48148896 -0.16166623
0.09606984 0.29818600 0.08691899
-0.02170124 0.20623239 -0.16510542
0.09634229 -0.50961028 -0.10217128
0.01572827 -0.48822338 -0.18653431
0.00201806 0.28555637 0.16523184
-0.05724108 -0.49090273 -0.1252793
0.01656078 0.28816946 -0.12594213
-0.00236939 0.29929367 -0.17560511
-0.01850292 0.07112216 -0.1757152
0.00127347 -0.48807950 -0.13597226
-0.0130512 -0.14832568 -0.17791229
0.00641864 0.28738304 -0.09774441
-0.02056116 -0.26690785 -0.17318041
0.03866912 0.29716620 0.16133987
-0.01230819 0.24903736 -0.15635794
-0.04422342 -0.51460600 -0.26117583
0.09313989 0.27666186 0.08832814
-0.00166742 -0.51460600 -0.28103138
0.06951123 -0.50193889 -0.08444422
0.03407498 0.26977887 0.15131792
-0.04587102 -0.50154466 -0.27797966
-0.09630721 -0.50176257 -0.09819213
0.03338901 -0.51460600 -0.25860551
-0.00204845 0.22278677 -0.16351324
-0.0460283 -0.51460600 -0.11854069
-0.00256392 0.28735186 -0.11947072
-0.00516823 -0.23862569 -0.17484094
-0.00346237 -0.48878122 -0.12197827
-0.0190558 0.27878058 -0.15350837
-0.02390881 0.30447145 -0.16682364
-0.04543463 0.27576098 0.1614425
0.07098375 0.27656329 0.03084047
-0.00432763 -0.35174143 -0.15937756
0.00033629 -0.50695306 -0.03826606
0.08602672 -0.49841356 -0.15076962
-0.001649 0.23208211 -0.16623103
-0.02146074 0.26038552 -0.17135126
0.10853266 -0.50550039 -0.15160655
-0.08608079 -0.50417375 -0.26765506
0.00259737 0.29173757 0.18769482
-0.0080956 0.28741084 -0.14996784
-0.00519589 -0.18988075 -0.17487024
-0.00674292 -0.48792845 -0.14144749
-0.01605465 -0.48936255 -0.1149848
-0.10019487 -0.51460600 -0.13222665
-0.04538725 0.30070045 0.17308311
-0.00169803 -0.12265948 -0.16796978
0.04902965 0.29823754 -0.0258669
-0.00735081 -0.23403763 -0.15711113
-0.01534526 -0.38695122 -0.17744419
-0.00260087 0.20018113 -0.17120501
0.06069872 -0.51460600 -0.06555655
-0.09187244 -0.49973931 -0.10315683
0.03880756 0.29814006 -0.05235701
-0.04793235 -0.51460600 -0.28845564
0.0370008 0.27796304 -0.03711638
-0.02471886 -0.49348909 -0.2485276
-0.05542547 -0.49374003 -0.2382639
-0.01118779 0.15077531 -0.15632361
0.06207244 0.29198840 0.11862629
6.965e-05 -0.50754328 -0.03827422
0.00070988 0.29432087 0.16206886
-0.11240637 -0.50455018 -0.23752725
0.08945443 -0.51460600 -0.10421135
0.08559269 0.27983609 0.08615715
-0.02201661 0.15727540 -0.1688928
0.00351098 -0.49435419 -0.0814639
-0.00421465 -0.50528873 -0.04037887
0.11042365 0.28833233 0.11672832
0.02929181 -0.51460600 -0.04735282
-0.02200961 -0.08640461 -0.16813271
-0.02148878 0.28637078 -0.16434363
-0.10015604 -0.51460600 -0.25304685
0.06381471 -0.50019920 -0.23795838
0.01709308 0.26854669 0.15056759
-0.00896908 0.05026267 -0.17727401
-0.0160789 -0.26585273 -0.17724008
0.1080401 0.27700333 0.11297713
-0.00803694 -0.44339262 -0.17693546
-0.0068845 -0.17456336 -0.17620743
0.02157005 0.27330125 0.16593093
-0.00503695 -0.34630257 -0.17470185
-0.00658583 0.27456695 -0.17601875
-0.0016412 -0.45949365 -0.16530859
-0.09509135 -0.50170364 -0.24654517
-0.06314377 -0.49411868 -0.23589458
-0.00290317 -0.06432301 -0.16140122
0.00624263 -0.51460600 -0.17278714
-0.00876422 0.08635154 -0.15665753
-0.05083636 -0.50879745 -0.29120645
0.10981381 0.29829214 0.11246457
-0.12541974 -0.51460600 -0.20583419
0.06517172 -0.49354172 -0.16116034
0.04094512 0.29338495 -0.01849324
0.09619403 -0.50205833 -0.13849915
-0.10796495 -0.51460600 -0.10514205
-0.01915492 0.17356574 -0.16008499
0.08056198 0.27668883 0.12675896
0.0453646 -0.49434574 -0.22434337
-0.01522652 0.19895123 -0.15711292
-0.01569327 -0.48519838 -0.15733004
0.00122285 -0.51460600 -0.21228437
-0.01849582 -0.11020393 -0.15938665
-0.02037355 0.05327080 -0.17353732
-0.08101957 -0.50560553 -0.06610842
0.013945 -0.48798597 -0.17617277
-0.00635035 0.27893765 -0.17131274
-0.11288688 -0.51460600 -0.15141197
0.02118866 -0.49997014 -0.26889524
0.0038362 0.30300567 0.16045765
0.02947778 -0.48917492 -0.18889266
0.05480269 -0.51460600 -0.20349167
-0.02138789 0.24591958 -0.16398184
-0.01670595 -0.32865011 -0.15796979
0.02572698 0.27177674 0.13952779
-0.01726581 0.26564986 0.14970717
-0.00552731 0.30440697 -0.16481046
0.01501506 -0.51460600 -0.24475817
-0.11731738 -0.51460600 -0.22393433
0.06666836 -0.49383841 -0.16142569
-0.01992889 0.27837609 -0.2023739
0.03884021 0.28206256 -0.02281519
-0.02173263 0.08198312 -0.17014875
-0.0061626 -0.37986304 -0.15781373
0.01903521 -0.49199654 -0.09998923
-0.10649152 -0.51460600 -0.09315268
-0.0347198 0.27751223 0.19172547
-0.01994821 0.29623687 -0.17222238
0.00382017 -0.48789803 -0.18357174
-0.01856468 -0.05454749 -0.17564966
0.0776156 -0.50125311 -0.22433241
-0.02172659 0.25432350 -0.16519635
0.06842563 0.27531663 0.13563239
-0.00316606 -0.29811305 -0.17220846
-0.01865814 -0.10716839 -0.17555051
-0.02067922 -0.29247676 -0.1623485
0.03622954 0.27340729 0.13424333
-0.02197593 0.25905307 -0.16690767
-0.05247473 -0.50266510 -0.28027573
-0.01583459 -0.44042146 -0.17731899
-0.00810096 -0.17546323 -0.15682723
0.01970624 -0.51460600 -0.20213382
0.08136532 0.27936293 0.11968563
-0.02086217 0.01435563 -0.16267354
0.05406874 -0.49821751 -0.23807779
0.00474531 0.28239843 -0.15623439
-0.00884554 0.28671608 -0.18732814
-0.00929253 0.16536226 -0.17737508
-0.02318936 -0.51460600 -0.22515481
0.07288359 0.28304194 0.12043362
0.06524603 0.28262434 0.12794379
-0.10527298 -0.51267543 -0.08964682
-0.04072901 -0.48876577 -0.20218418
0.08050652 -0.50338492 -0.08929617
0.05616273 0.27684589 0.00228644
0.06871354 -0.49881763 -0.09976113
-0.00875284 0.31134809 0.15584256
0.06936229 0.29251462 0.05140459
-0.01215371 0.31291739 0.18071883
0.00580163 0.27454033 0.17638283
-0.03672164 0.29703520 -0.21530559
0.05218884 -0.49591979 -0.22698257
-0.03806241 0.29754016 0.18919216
-0.0215077 -0.42611246 -0.17114356
-0.03657002 -0.51460600 -0.28391811
0.05261607 -0.49854479 -0.08424417
0.02852443 0.28762689 -0.09719057
0.04227711 0.30397070 0.14998208
0.0171123 -0.50190719 -0.27705128
-0.07887823 -0.51460600 -0.1829217
-0.02022455 -0.31256906 -0.17382077
-0.09794693 -0.49970745 -0.23133466
-0.02799786 0.29967238 0.19401641
0.09357357 -0.50947420 -0.09690141
-0.11067212 -0.50383234 -0.23615593
-0.03353246 0.26208104 0.1694749
-0.07402045 -0.50388205 -0.27381586
0.10702137 0.28415561 0.09394832
-0.0273036 0.26077105 0.16103018
-0.01670168 -0.51460600 -0.14472405
0.03338526 -0.50130422 -0.26767786
-0.0234207 -0.51460600 -0.10355227
-0.05806848 0.29637434 -0.26481443
0.10273379 0.29833047 0.12021432
-0.10011227 -0.49659515 -0.19456169
0.04218395 0.30343081 0.15155437
0.08144088 -0.51460600 -0.17113769
-0.02765184 -0.51460600 -0.28212535
0.00666231 -0.51460600 -0.06061964
-0.00399879 -0.26456566 -0.15972646
-0.01451138 0.26718648 0.14855656
-0.0162645 0.08777806 -0.15769091
0.06598116 -0.51460600 -0.0927392
-0.09899115 -0.51460600 -0.17576255
-0.02175112 -0.40417791 -0.17006698
0.08223048 0.29653279 0.1201406
-0.01430246 -0.39849611 -0.177711
-0.01386319 -0.45537179 -0.17782338
-0.02146006 -0.41532671 -0.17135427
-0.057562 -0.51460600 -0.27788632
-0.03119266 -0.48798560 -0.18908802
0.0706154 0.27741905 0.02103453
0.09797715 -0.51460600 -0.17084636
0.04861194 -0.51460600 -0.10988419
0.07547613 -0.51460600 -0.16393215
-0.06565213 -0.51460600 -0.0739962
0.0871788 -0.51460600 -0.16817329
-0.00887763 0.29898702 -0.18247465
-0.05929692 0.27755453 -0.27230083
-0.04044066 -0.51460600 -0.09200251
-0.0350502 0.27810654 -0.23808362
0.06812219 0.28713705 0.05135343
-0.00475025 0.18516472 -0.15892916
-0.05262881 -0.49057691 -0.21561021
-0.09351156 -0.51460600 -0.12654934
0.09898308 0.27668533 0.09630769
0.03350578 -0.51460600 -0.21306611
-0.10081513 -0.49776319 -0.13623663
-0.04122768 0.29553261 0.18665037
-0.01884312 0.02247129 -0.15975462
0.0001635 -0.49715938 -0.26437048
0.03591418 -0.51158941 -0.04524206
0.00844898 0.28903528 0.17917532
0.05202307 -0.51460600 -0.15696608
0.0739056 -0.49650141 -0.19192013
0.03968643 0.30272387 0.15456786
-0.01390236 -0.49294298 -0.08892992
0.02464231 -0.50848239 -0.04236221
0.11331329 0.28015895 0.11471138
-0.00855216 0.02445204 -0.17714373
0.0284763 -0.50441529 -0.2816863
-0.09958561 -0.49981145 -0.22897428
0.01306355 0.27816154 -0.12193515
0.04788495 -0.50472712 -0.05586947
-0.00751225 0.29834691 -0.15517052
0.03419599 0.30134050 0.1344757
-0.0016846 -0.48613195 -0.16749369
-0.00064199 0.29658523 -0.15571257
-0.04734019 -0.51460600 -0.10134336
-0.01057734 0.31081521 0.15394594
-0.04790852 0.29694166 -0.24203046
0.07217898 0.28609766 0.06083187
-0.01084676 0.29787152 -0.17423064
-0.0605369 0.29260174 -0.26272959
0.01502953 -0.51460600 -0.21550787
-0.01126774 -0.50240201 -0.28463815
0.04000191 0.28010954 0.16192068
-0.02939637 0.29472540 -0.23052291
-0.03047513 -0.49840756 -0.27008071
0.07624761 0.27999522 0.02540266
-0.03254741 0.31189311 0.15967967
-0.07351836 -0.49583704 -0.10528924
-0.08907882 -0.49780556 -0.23215205
0.09282099 0.27733353 0.07521605
-0.02049812 -0.33946895 -0.17330033
-0.03215547 0.29536337 -0.19899581
-0.0024223 -0.48498075 -0.17079571
0.04697329 -0.51460600 -0.07913234
-0.01242217 0.13048252 -0.15636144
0.06009905 0.28330672 0.02982216
-0.03596086 0.29718141 -0.2143201
0.04204468 0.29686221 -0.02430731
0.02764923 0.29146614 -0.09732967
0.07602728 0.28732490 0.07052446
0.05399294 -0.51460600 -0.15016258
-0.02052396 0.24114854 -0.16207265
0.08599874 0.29704056 0.05505441
-0.10353264 -0.51460600 -0.1244809
0.07793135 -0.51460600 -0.17227424
-0.0270818 0.29320625 -0.1826258
-0.00319005 -0.42046451 -0.17225104
-0.04769301 0.27676032 -0.25966641
-0.01806862 -0.46813182 -0.158934
0.02749832 0.27962281 0.16793281
-0.00789555 -0.04987540 -0.17684614
0.08973135 -0.50205479 -0.20724349
-0.00966662 -0.04361736 -0.17749197
0.07599237 0.27241857 0.12840427
-0.05941066 -0.49279122 -0.11116988
-0.02044342 0.13497180 -0.1734044
0.05052045 -0.51460600 -0.24421963
0.05794951 -0.49454359 -0.11712354
-0.00215657 0.02576046 -0.16984042
0.00442883 -0.51460600 -0.25186749
-0.06604351 -0.50458783 -0.06021177
-0.01083702 -0.51460600 -0.21938673
-0.00164789 -0.36100372 -0.16619184
0.00025659 -0.51460600 -0.11205049
-0.05290391 -0.49609158 -0.08663456
-0.10365598 -0.49800290 -0.14316053
0.10579468 0.29515902 0.0971202
-0.0062185 0.04570532 -0.17578669
-0.03558813 0.27051776 0.15113227
-0.01998501 -0.40221959 -0.16111511
-0.01691535 0.28732552 0.13933029
-0.12397542 -0.51460600 -0.18704047
0.02339578 -0.51460600 -0.25933836
-0.00487667 -0.40194757 -0.17453202
-0.01904153 0.28005464 -0.17514373
-0.0170336 0.29358863 -0.14861988
-0.09074266 -0.50132343 -0.09438354
-0.02106653 0.08388707 -0.17221901
-0.00342631 -0.28638780 -0.16040524
-0.06670752 -0.49145359 -0.1330987
0.03362626 -0.51460600 -0.17370373
0.03618638 -0.51460600 -0.13416298
-0.0038826 -0.25922419 -0.15984973
0.05285172 0.28032628 0.15561132
0.07399467 0.28600770 0.14057594
0.02053972 -0.50040511 -0.05992381
-0.02154866 -0.07175136 -0.17096241
0.0394735 -0.49835650 -0.07641232
-0.00523023 -0.20379989 -0.17490664
-0.0122038 0.26898629 0.19023158
0.06190552 0.28229479 0.11900082
0.04202679 0.28032368 -0.01826975
0.0263244 -0.51460600 -0.1646083
-0.00170491 0.19250252 -0.16821389
-0.07908672 -0.49226692 -0.14956011
0.0550061 -0.49651900 -0.09857217
0.02597641 0.27780663 -0.06467739
0.09863326 -0.51460600 -0.10986256
-0.02197923 -0.07234622 -0.16702787
-0.00818646 -0.29752560 -0.15680535
0.02572871 0.27724535 -0.08647627
-0.00248488 0.28107822 -0.12449071
0.0838049 -0.51460600 -0.19725104
0.0978362 0.28470610 0.07122641
-0.03847138 0.27794033 -0.21971243
-0.02178176 0.10626428 -0.16993149
0.10899606 -0.51044733 -0.17964219
-0.0089212 0.31294408 0.16005346
0.06632468 -0.51460600 -0.12024319
-0.01655636 -0.21095704 -0.17695776
0.0660631 0.29630818 0.12991918
-0.01322035 0.05612443 -0.15648604
-0.03597711 -0.48794951 -0.17808559
-0.09980771 -0.49790918 -0.13066596
0.00939027 0.29533894 -0.09847674
-0.02103898 -0.48800432 -0.15978171
-0.01821137 -0.51460600 -0.07685253
-0.00741475 -0.35631522 -0.17654241
0.08274607 0.29843057 0.05916558
-0.09615801 -0.51460600 -0.20727791
-0.01980372 0.31618103 0.17176231
0.0744435 -0.51460600 -0.21603479
-0.06900882 -0.49052038 -0.18622537
-0.06811581 -0.50293734 -0.06730677
-0.0247299 -0.48798475 -0.1684215
-0.11490345 -0.51460600 -0.15149061
0.0813198 -0.50270303 -0.09456828
-0.01355603 -0.39325414 -0.17790197
-0.03377994 -0.51460600 -0.22149359
-0.02192891 0.23580594 -0.16928068
-0.05271031 -0.49677802 -0.25668373
0.02727637 -0.51460600 -0.12162109
0.01719297 -0.51460600 -0.10746454
0.0581259 0.30225314 0.14484727
-0.04965008 -0.50518500 -0.2891159
0.07207547 -0.51460600 -0.20540287
-0.01583922 0.19467788 -0.15742224
0.08804574 -0.51460600 -0.21966389
-0.01375474 -0.49639132 -0.26227603
0.00661264 -0.48865329 -0.20514234
-0.05611219 0.29646589 -0.26037191
0.10587378 -0.50629771 -0.12860948
-0.0021108 -0.21001878 -0.16967586
-0.01393426 -0.49997115 -0.27630955
-0.00612371 -0.48794469 -0.15178861
-0.01939723 -0.10844830 -0.17476633
-0.13320272 -0.50875428 -0.17436045
-0.02726655 -0.50582264 -0.04030593
0.00579147 0.28951210 0.17435494
0.10538457 0.29136062 0.09049967
0.07588679 0.28694799 0.13991656
0.05264394 -0.49132989 -0.1649995
0.02287681 -0.51460600 -0.18114585
0.06587484 0.27993527 0.03866958
0.05902795 0.27601487 0.12403165
-0.01259397 0.17085177 -0.1563667
-0.10401694 -0.51460600 -0.12085184
0.02822468 -0.49288347 -0.09926407
-0.00200122 0.03486863 -0.16928192
-0.02338018 0.27073894 -0.16578649
0.10329568 -0.50454111 -0.13582556
-0.0158028 0.29019591 0.13966099
-0.00543323 -0.29050001 -0.15824502
-0.0337052 0.26722876 0.1528438
-0.02099314 -0.48797652 -0.14054429
0.01271272 -0.51460600 -0.20577355
0.08289176 0.29650114 0.04580872
-0.00315687 0.11728118 -0.16091821
-0.02254805 -0.51460600 -0.17483988
-0.03056872 0.26152586 0.17542179
-0.08830887 -0.51460600 -0.17446925
-0.05807015 -0.51460600 -0.16413675
-0.05009119 -0.51460600 -0.07622394
-0.01253632 -0.15943903 -0.15636493
-0.02022323 0.16784709 -0.17382328
-0.01106315 -0.46473421 -0.17785137
-0.03133904 -0.49044601 -0.10964232
-0.02048864 -0.31474376 -0.1620099
0.02722998 -0.50154774 -0.27252396
0.0045419 0.27944465 -0.14657487
0.09978489 -0.51323454 -0.10872376
0.02866602 -0.50154509 -0.27160609
-0.04208759 0.27644844 0.18371788
-0.03562023 -0.51460600 -0.17726515
-0.06550804 -0.49408191 -0.23309797
0.09402935 -0.51460600 -0.21194534
-0.02104886 0.17654809 -0.16300523
0.04448366 0.28164077 -0.05442638
0.00500255 -0.48836466 -0.20042477
-0.02624349 0.26165084 0.15736556
0.0785105 0.27734355 0.05964136
0.00886006 -0.51460600 -0.26824401
-0.01276543 -0.51460600 -0.09224709
-0.01945981 -0.25558678 -0.16040804
-0.01834611 0.27467433 -0.17671285
-0.01844408 -0.35755835 -0.17577763
-0.08445564 -0.51460600 -0.22242686
-0.04460644 -0.48948733 -0.12801134
-0.0020179 -0.02429233 -0.16364791
0.00108285 -0.48792434 -0.17712533
0.08304308 -0.51460600 -0.11156488
-0.09450227 -0.51460600 -0.25928293
-0.0773961 -0.51460600 -0.09274357
-0.02184031 0.18185600 -0.16967252
-0.01612242 0.27849666 -0.17721435
-0.00654443 0.07601949 -0.17599259
-0.01467022 -0.06675294 -0.1776169
0.02613776 -0.49132217 -0.10940357
-0.02260072 -0.48902363 -0.21465201
-0.02782976 0.28402569 0.19667456
-0.00375822 -0.28416382 -0.17325979
-0.09259898 -0.51286058 -0.07621885
-0.04455889 0.29656132 -0.26213115
0.06828058 -0.50116360 -0.08704748
0.06275345 0.29834007 0.01483009
-0.11535689 -0.50768575 -0.24087905
-0.08501919 -0.51460600 -0.09343659
0.09117064 -0.50276558 -0.21003149
0.04584672 -0.49218198 -0.20527386
-0.0915767 -0.51460600 -0.07695756
-0.04602959 0.28120086 0.15759944
-0.01110201 -0.23401121 -0.17785257
-0.01011438 0.00702490 -0.17763189
-0.02025738 -0.45118170 -0.17375831
-0.02109404 0.28057714 -0.17040531
-0.00274879 -0.27291098 -0.16169514
-0.01381071 0.29815161 -0.16683691
-0.01488042 -0.45020442 -0.17756312
-0.01042544 0.28422792 0.19651876
-0.03354565 -0.49270389 -0.24186821
-0.02225035 0.28242064 -0.16123299
0.04076324 -0.49027133 -0.18842897
-0.04481085 0.29552383 0.18135394
-0.02117027 -0.26061060 -0.17202166
-0.10692211 -0.51460600 -0.11821226
0.04751884 0.28518094 0.12313784
-0.04895078 -0.48844127 -0.17794784
0.07596579 -0.51460600 -0.11619417
-0.02358213 0.30012437 -0.16445188
-0.00209754 -0.10541917 -0.16329683
0.06734163 0.27769077 0.13301162
-0.00013993 -0.51460600 -0.20883399
0.11108085 0.28254220 0.1241493
-0.01492919 -0.48532332 -0.17755064
-0.12688032 -0.51460600 -0.13418069
-0.01396147 0.27689170 -0.18037827
-0.01392187 -0.51460600 -0.25353573
-0.02690764 -0.48795836 -0.19059449
-0.03988245 -0.51460600 -0.2246666
0.02016248 0.29757717 -0.10098029
-0.0055789 -0.00337230 -0.17527607
-0.03142815 0.29124466 -0.19100224
0.10210538 0.27654031 0.10778739
-0.03309845 -0.50073909 -0.05892343
0.00271664 0.26954174 0.14986216
-0.00712361 -0.49200351 -0.2396882
-0.04446437 0.30223735 0.17185375
-0.11714929 -0.50103744 -0.15273421
-0.00128983 -0.51460600 -0.07873315
-0.01614404 0.14827782 -0.15761481
-0.02561326 -0.51460600 -0.19137633
-0.12147122 -0.50189315 -0.18272627
0.09049708 0.28308762 0.10309479
-0.11677572 -0.50310545 -0.21980905
0.06972704 0.29567915 0.04632865
-0.08510592 -0.49756141 -0.10750295
-0.10715014 -0.49861599 -0.19835589
-0.02102286 -0.18427662 -0.17230208
-0.09645577 -0.50035505 -0.23829861
-0.12877702 -0.51136188 -0.14004858
-0.00250142 -0.28952500 -0.16216611
-0.01674509 0.24624395 -0.15799451
0.04986857 -0.49442281 -0.10700059
0.10408896 -0.51460600 -0.18462789
0.04550651 -0.51460600 -0.24756216
0.01554791 0.28780061 -0.1285078
0.05513374 -0.51460600 -0.07555359
0.07579218 0.27243818 0.13083964
0.0664016 0.29332708 0.11776551
-0.0173104 -0.48792432 -0.19241592
0.04402232 0.27643453 0.15737484
-0.0079909 -0.50074690 -0.05517146
0.10045958 -0.51460600 -0.15362772
-0.01659687 0.26580928 -0.15790088
-0.09493861 -0.51460600 -0.20888475
0.00261049 0.29344509 -0.16356581
-0.00526323 -0.48243405 -0.1749416
-0.03780738 -0.50262603 -0.28389763
-0.0985439 -0.50108683 -0.23977226
-0.11321315 -0.50058419 -0.20285564
0.02002261 0.29985206 0.16860197
-0.05732007 -0.51460600 -0.14942144
-0.12201441 -0.51460600 -0.18809952
0.05423512 -0.51460600 -0.0834928
-0.00380837 0.15021249 -0.17334882
0.07781375 -0.51460600 -0.08772469
-0.09709448 -0.51460600 -0.20499156
-0.01771448 0.25843318 0.1680099
0.10856197 -0.50936147 -0.18181643
-0.02200256 -0.25475338 -0.16895492
0.02471774 -0.51460600 -0.25327055
0.04034467 -0.48965348 -0.15773017
-0.01847622 -0.40076861 -0.17574352
-0.09278483 -0.51166707 -0.07641576
0.0052626 -0.48983843 -0.22005354
-0.0234023 0.31044807 0.15164719
0.03571479 -0.51460600 -0.23299247
0.0156936 -0.50475994 -0.04383927
-0.04117945 -0.51460600 -0.26570022
-0.041676 -0.48810793 -0.1812587
-0.00213901 -0.01147991 -0.16311403
0.00887804 0.28891557 -0.09221023
-0.02148042 0.25290984 -0.17126424
-0.01201193 -0.28913910 -0.15634887
0.00844478 -0.51460600 -0.06072689
-0.00856878 -0.51460600 -0.03918279
-0.13201473 -0.51460600 -0.17858228
-0.00227133 0.29861434 -0.17536794
-0.01974822 -0.50536388 -0.04062213
0.00652385 -0.49113778 -0.2302263
0.09087025 -0.50115596 -0.12856181
0.0344343 -0.51460600 -0.06321533
0.05350212 -0.49462648 -0.10950714
-0.00789524 -0.51460600 -0.24014814
0.02640804 -0.51460600 -0.16612755
-0.0129152 -0.03413973 -0.15639069
0.02141106 0.30317781 0.14071049
0.02902782 -0.51460600 -0.18271209
-0.02896173 0.29239163 0.14145323
-0.01831225 -0.14402759 -0.1759175
-0.05849024 -0.51460600 -0.20689618
-0.01982176 -0.29659133 -0.16082508
-0.102481 -0.51460600 -0.21343817
0.07066364 -0.51460600 -0.17157589
-0.09048252 -0.49384659 -0.17701223
-0.03318458 -0.49128133 -0.2325842
-0.00903118 0.29580769 -0.1444831
0.02937613 -0.51460600 -0.10535733
0.06452739 0.29666921 0.00193759
-0.02195751 0.04761701 -0.16623795
-0.08823925 -0.50505052 -0.26930997
0.0508535 0.27400099 0.15100257
0.03412093 0.28535803 -0.03141276
-0.04444716 0.29708217 -0.26007324
-0.02190145 -0.47128041 -0.1694021
0.06794649 -0.51339401 -0.25905666
0.05226129 -0.49817757 -0.23977725
-0.10922733 -0.51460600 -0.1649123
0.0866253 -0.49879832 -0.14656527
-0.00211467 0.29395911 -0.12365799
0.05722131 -0.49209670 -0.17148108
-0.0132733 0.24570937 -0.1779191
-0.00718069 -0.43229837 -0.15721172
0.09145291 -0.49994405 -0.15160256
0.04236584 0.28203825 -0.01431578
0.01090576 -0.49032664 -0.10939729
-0.02125919 0.11076910 -0.1718525
0.09029553 -0.51460600 -0.2143636
0.0657711 -0.49366028 -0.1612198
0.10918875 -0.50720028 -0.17273169
-0.01914627 0.29338812 -0.16377727
0.03826349 -0.51460600 -0.15733093
0.06670797 0.29047647 0.15025193
-0.09546496 -0.51306240 -0.26559152
0.10027799 -0.50504142 -0.11580089
0.07720151 -0.51460600 -0.12043053
-0.04129095 -0.51460600 -0.06467087
-0.00023089 -0.48972965 -0.11182143
0.10389093 -0.50411642 -0.17353951
-0.12783901 -0.50678073 -0.2130655
-0.07026835 -0.51460600 -0.10975881
-0.08841921 -0.49430359 -0.20065468
0.09728058 -0.50212273 -0.18095091
-0.03604192 -0.51378540 -0.29498678
0.0848011 -0.50100774 -0.20995647
0.06862139 -0.51460600 -0.12601721
0.09722452 -0.51460600 -0.10815829
-0.01228401 -0.29372064 -0.17788879
0.08952872 -0.51460600 -0.09495312
0.0091045 0.27740417 -0.10780402
0.05762111 -0.51460600 -0.24668723
-0.01586375 -0.27282876 -0.15743774
-0.03942537 -0.49540792 -0.25464459
-0.01074916 -0.25320199 -0.17783024
0.04904333 -0.51460600 -0.10973891
0.07691662 -0.51460600 -0.0774753
-0.03773839 -0.51460600 -0.27355204
0.05618865 0.29781675 0.12392917
-0.0043178 -0.48100145 -0.17393987
0.06328378 -0.49755864 -0.10120925
-0.00172302 0.13330423 -0.16494787
-0.00789982 0.29034693 0.14183044
0.10174443 0.27681735 0.1170099
-0.05689341 -0.51426334 -0.04973184
-0.01326125 -0.11350211 -0.15649882
0.01072845 0.27772471 -0.10201701
-0.08271265 -0.51460600 -0.23940358
0.08879215 -0.49935286 -0.17644375
-0.01604091 -0.26587204 -0.15754966
0.02680659 -0.51460600 -0.15209898
-0.00363989 0.28017444 -0.1730497
-0.01964844 0.15473629 -0.1606079
-0.01912084 0.28799004 0.19824171
-0.00362156 -0.08843290 -0.1601267
-0.02093038 -0.16092913 -0.16279473
0.06035535 0.28619903 -0.0198624
0.06158112 -0.51460600 -0.17267676
0.02399723 0.29841945 -0.08031507
-0.07127446 -0.49071609 -0.18341631
-0.05759053 -0.50158088 -0.06580139
-0.00322222 0.15190736 -0.17230816
0.08088269 0.29078201 0.14322127
-0.01345242 -0.02841921 -0.15655856
0.06691348 -0.49574873 -0.12264244
0.00967564 0.28951146 -0.09047046
-0.0736223 -0.50150102 -0.26497566
0.10207957 -0.50356312 -0.17968901
0.06473381 -0.51417680 -0.06148197
-0.00197898 0.17774129 -0.16381951
-0.00518357 0.29212720 -0.1584694
0.05124808 0.29478695 0.12345098
0.00150755 0.29316972 -0.16623233
0.03278746 -0.51460600 -0.14433199
0.07046404 0.28842609 0.11517287
-0.01616705 -0.51123621 -0.03877098
-0.02186164 0.22172458 -0.16957818
0.02997449 -0.49468860 -0.08919883
-0.06531263 -0.51460600 -0.23066579
-0.01199548 0.17312054 -0.15634836
-0.12699404 -0.51460600 -0.162889
0.00773084 -0.51460600 -0.17480139
-0.01813188 -0.05512644 -0.15900103
0.07849306 -0.51026289 -0.24788222
0.08958655 -0.49983490 -0.18104137
-0.0422998 -0.48841985 -0.19277587
-0.08243996 -0.51460600 -0.10311051
0.02112681 -0.48850322 -0.1874209
-0.08605392 -0.51460600 -0.12481844
-0.0285035 0.26971368 0.14725022
-0.0118061 -0.14899631 -0.17787414
0.03183712 0.28460432 -0.08826622
-0.0132264 -0.15191593 -0.17791766
0.02009067 -0.48965121 -0.12119696
0.05336909 0.28622343 0.12101219
-0.04179635 0.29399437 -0.21965848
-0.01827917 -0.09413218 -0.15915709
-0.00943378 0.29719722 -0.15027963
0.03115039 -0.51460600 -0.11148686
-0.02268703 -0.48786938 -0.14856569
-0.04674204 -0.51460600 -0.14960704
0.01234711 0.27748089 0.13775621
0.00687533 -0.49408780 -0.24795534
0.04421176 0.28940094 -0.00693978
-0.00390453 -0.30990648 -0.15982647
-0.05273557 -0.51460600 -0.19353694
0.08495342 0.29124980 0.09036021
-0.04414696 -0.48813793 -0.16757873
-0.02162017 -0.23726423 -0.17064617
-0.03467754 -0.51460600 -0.1486646
-0.05583031 -0.49267115 -0.10826286
0.05715024 -0.51460600 -0.08962419
-0.04835324 -0.51460600 -0.16513581
0.06558621 -0.51460600 -0.20448001
0.10019221 0.29206155 0.07864535
-0.03772545 -0.50208611 -0.28201568
-0.04148684 -0.51460600 -0.10596197
-0.00874737 0.24548357 -0.17720473
0.10520962 0.29336941 0.1076191
0.06173849 0.29726488 -0.00228813
0.05954712 -0.49322325 -0.13575481
-0.07083731 -0.50037265 -0.0789181
-0.00642842 -0.51460600 -0.20910746
-0.01736239 -0.12862236 -0.17648115
0.07832992 0.27852472 0.03471222
-0.10309703 -0.50433880 -0.25034318
0.00670138 -0.50859442 -0.29328148
-0.00117202 0.27304249 0.15751931
-0.01861656 0.13435554 -0.15951457
-0.01820388 0.11515920 -0.17598357
-0.00278219 -0.02363384 -0.16163155
-0.01400026 -0.49953689 -0.2748091
-0.06354679 0.28770378 -0.26692184
0.0142347 -0.51460600 -0.19386297
0.05935723 -0.49511649 -0.21061292
-0.04239238 0.30469515 0.17396167
-0.04137235 -0.49286982 -0.24079889
-0.00084378 0.30346921 -0.16429896
0.03253085 -0.50185107 -0.0577678
-0.00552433 0.11601879 -0.15819115
-0.07669314 -0.51460600 -0.14453519
-0.00271857 0.19417545 -0.17141398
-0.04895404 -0.49585527 -0.25401243
0.09790384 0.29769768 0.12411953
-0.00152963 0.30809489 0.15857396
0.0733221 0.29664093 0.12396631
-0.01993755 0.06650027 -0.1610308
-0.03803525 -0.49187934 -0.10203342
-0.00166184 0.16881837 -0.16668644
0.0590628 0.28342869 0.02743865
-0.00163778 -0.22826201 -0.16583325
-0.02928822 0.29718451 -0.19820624
-0.00226837 -0.07078311 -0.1626098
-0.04804139 0.28530773 0.16259853
-0.01846023 0.30509109 0.19218331
0.10634599 0.28144287 0.11841484
-0.00473494 -0.11204428 -0.1589454
-0.02334141 -0.49524966 -0.07834251
0.02362355 -0.51460600 -0.19120691
-0.02777275 -0.51460600 -0.20599614
-0.02700446 -0.48913404 -0.12098485
-0.00225288 -0.19517212 -0.16263929
-0.06317878 -0.51460600 -0.25710333
-0.01693047 -0.33889608 -0.15811163
-0.05642667 -0.49050456 -0.2106888
-0.0317769 0.28971440 -0.2423145
0.0471301 -0.51460600 -0.18569849
-0.0191856 0.30067803 0.19504069
0.0621651 -0.50581284 -0.06037989
0.02877967 -0.51460600 -0.08393477
0.04753938 -0.51460600 -0.18807386
-0.05566634 -0.50371295 -0.28283609
-0.01996145 -0.31175426 -0.16107326
0.02260277 -0.51460600 -0.19962446
