# .PCD v0.7 - Point Cloud Data file format
VERSION 0.7
FIELDS x y z
SIZE 4 4 4
TYPE F F F
COUNT 1 1 1
WIDTH 1392
HEIGHT 1
VIEWPOINT 0 0 0 0 0 0 1
POINTS 1392
DATA ascii
-0.07458672 -0.01491402 -0.11568743
0.324148 -0.09011719 -0.11555605
-0.14872902 0.07646979 -0.10386409
-0.29099301 -0.13254659 -0.2300267
0.00287566 -0.10942772 0.30885223
-0.14443875 -0.04977802 -0.05319865
0.19189061 0.14494998 -0.20497554
-0.19530126 0.08547564 -0.16115643
-0.06352107 0.19696588 -0.22331293
0.1237672 0.07769552 -0.18235068
0.06462879 0.09559429 -0.18828614
-0.0055871 -0.12251500 0.15257529
0.00752888 0.04557903 -0.16830241
0.03586803 0.06876042 -0.1797664
-0.03258201 -0.11699500 0.116066
0.12880611 0.03635334 -0.16388127
0.03116664 -0.11699500 0.20306
0.01071693 0.05725634 -0.17666078
-0.165261 0.00890391 -0.10202107
-0.08580108 0.20232281 -0.22508938
0.14325327 0.10985193 -0.19087915
-0.10434554 0.21122486 -0.23722332
-0.15412253 0.08071974 -0.18303155
-0.10954427 0.13125198 -0.19978869
0.19818586 -0.17687701 -0.16936356
0.01427138 -0.10930345 0.06926429
-0.01382401 0.10251521 -0.19025921
0.19208086 -0.06378793 -0.01035769
-0.09103734 0.15088440 -0.20573505
-0.08072079 -0.02422960 -0.10321016
-0.01124427 -0.04520680 -0.06180972
0.13531876 0.15238732 -0.20498443
0.16010343 0.10824481 -0.19312621
0.18512086 -0.01426614 -0.11683403
0.10496434 0.25590583 -0.2398365
0.05342811 -0.11276500 0.2528489
-0.18512814 0.06214185 -0.01271947
0.35194799 -0.10964681 0.05927643
0.05521407 0.09451072 -0.18901481
0.06701369 0.19960439 -0.2230999
-0.00283969 0.03725130 -0.16302899
0.19841699 0.04435714 -0.13886141
-0.14551881 0.03636349 -0.16086702
0.16329849 0.07952852 -0.12332154
0.18081692 -0.10547337 0.04610874
-0.17724492 -0.17687701 -0.16305191
-0.14347193 -0.11276500 0.14859987
-0.11670411 0.18338153 -0.21804252
-0.06336043 0.14952109 -0.21676143
0.16468182 -0.12352200 0.14850999
-0.00947994 0.26571188 -0.24578732
0.14267432 0.12843874 -0.20058812
0.03342896 0.05706424 -0.17389807
-0.14506645 0.25158928 -0.23840508
0.18093212 -0.04131158 -0.07273625
0.17612488 0.25506281 -0.24330389
0.11543962 -0.12352200 0.16654996
-0.02316788 0.14492814 -0.20464588
0.0786789 -0.15763192 0.11265202
0.06605067 -0.17687701 0.02759145
0.15506346 0.05952169 -0.25014701
-0.09976525 -0.17687701 0.00365309
0.16731252 0.03848213 -0.16390372
0.06386874 -0.04662930 -0.06022374
0.16013634 0.05646310 -0.17498774
0.05375353 0.09731358 -0.18853428
-0.25003946 -0.17687701 0.06150263
-0.06802656 -0.17687701 0.02569661
0.27927952 -0.08393896 0.114191
-0.00024018 -0.04644987 -0.06143314
-0.15951191 0.06379905 -0.17740929
0.02466967 0.03568253 -0.16126908
0.09385232 0.00560017 -0.13543156
0.03891086 0.10842437 -0.19254076
-0.14087457 -0.12352200 0.14735117
-0.07499441 0.13954437 -0.20427095
-0.13807156 -0.05730881 -0.03067285
0.13315718 0.09295472 -0.2087323
0.0105242 0.18036974 -0.21607677
-0.11916051 0.24640202 -0.23797392
-0.0177366 0.17325051 -0.21436049
-0.09973086 -0.17687701 0.0342349
-0.26676657 0.06676322 -0.04211784
-0.07576351 0.10498958 -0.19248974
0.16715634 0.12058049 -0.19443688
0.14641703 -0.03072568 -0.09244001
-0.06224311 0.22178812 -0.23045641
0.04831553 0.08496105 -0.18314901
0.324148 -0.05015757 0.01853987
0.29452289 0.05735925 0.01770409
-0.18218031 -0.17687701 0.03929187
-0.14666623 0.25769041 -0.24417525
-0.09790645 0.01253057 -0.1421018
0.324148 0.04423001 -0.02654957
0.14578128 -0.17687701 -0.18971448
-0.06342137 0.03969566 -0.16520916
-0.16571939 -0.17687701 -0.09385465
-0.11518111 -0.12251500 0.17083468
0.15817364 -0.05824234 -0.02951238
-0.23054495 0.07668724 -0.1052492
-0.09123805 0.26279007 -0.24586639
0.1071304 0.04817447 0.07613232
0.12897389 -0.12251500 0.20946796
0.35194799 -0.00110308 -0.09263159
0.35194799 0.02948878 -0.06902098
-0.02197472 0.10081809 -0.19484372
-0.14753666 0.16938654 -0.21618122
-0.02865725 -0.17687701 0.06804515
0.07257996 -0.06051350 -0.01800734
0.13598657 -0.06324905 -0.01356512
0.15280502 0.08095044 -0.18254404
-0.01180335 0.01916827 -0.1489395
-0.09554308 -0.02900561 -0.09605779
0.08147062 -0.06308675 -0.01033507
0.18438509 -0.06760415 0.11266437
0.06906018 0.07724195 -0.18058926
-0.13135823 0.00030256 -0.13085634
0.10588595 -0.03664278 -0.08017278
0.0526797 -0.17687701 -0.11254878
-0.05937682 -0.02674790 -0.09839095
-0.17720648 0.06708014 -0.04413348
0.19029936 0.08973952 -0.18634462
0.15796336 -0.11276500 0.25543082
0.15252431 0.15384085 -0.20727945
-0.29099301 0.05751339 -0.20337599
-0.02460937 0.19330441 -0.22209872
-0.05868651 -0.01692726 -0.11802872
0.13823035 -0.08553184 0.05494641
0.02036117 -0.12251500 0.31212254
0.06759018 -0.05719408 -0.02910429
0.35194799 0.01290628 0.04742896
0.00519812 0.01376251 -0.14453646
0.12617588 0.05870156 0.00916931
0.33023199 -0.04471864 -0.13815778
-0.14751099 0.07225531 -0.18054663
0.33644757 -0.01547400 -0.15889244
0.13764289 0.01399693 -0.1440371
-0.16337292 0.08366459 -0.18271909
-0.15912958 -0.01179503 -0.12050234
-0.22034636 0.04130361 -0.25014701
0.15833161 0.01159435 -0.14442373
-0.29099301 0.01729914 -0.10671198
0.18359081 -0.11276500 0.28906694
0.15805008 0.23664427 -0.23473812
0.18454405 0.06773882 -0.1769139
0.18712672 -0.17687701 -0.11664535
0.12371897 0.16352545 -0.21563853
-0.08228324 0.15574261 -0.2088771
0.0246499 -0.03962020 -0.07692106
-0.10011143 0.14979484 -0.20734774
0.324148 0.05323004 -0.12479978
-0.12773412 -0.04260090 -0.07051322
0.02795002 -0.03647453 -0.0809756
0.1952043 -0.07010298 -0.04734381
0.05597563 0.00717883 -0.14017396
0.07747511 -0.06356185 -0.01011079
-0.05134929 -0.06049288 -0.02129602
0.18093736 -0.04941727 -0.05513896
0.05012108 -0.17687701 -0.15826133
-0.04183719 -0.06282014 -0.247045
-0.0492027 -0.17687701 -0.07221649
0.08064601 -0.06746634 0.10985392
0.15682684 -0.07536774 -0.0379304
0.04054078 0.00449188 -0.13436487
0.00925442 -0.00748655 0.114191
0.15915474 -0.05863074 -0.02678424
-0.06502183 -0.01582081 -0.1168295
-0.05371756 0.16262904 -0.21019373
0.35194799 -0.13117231 0.05787674
0.16658806 0.15808776 -0.20933226
0.10106251 0.17090397 -0.2132598
0.17586823 -0.02651673 -0.09820968
-0.29099301 -0.06801940 -0.24401028
0.12693611 -0.10216488 0.032879
0.05798626 0.17479911 -0.21366547
0.15495968 -0.12352200 0.3374982
0.0088045 -0.02006809 -0.11192272
0.17602127 0.20307355 -0.22457265
-0.15543322 0.24094103 -0.23789586
0.324148 -0.03428806 0.07900959
0.07223218 0.12655117 -0.19996217
-0.15677044 -0.12352200 0.14786268
0.02448772 0.18645327 -0.22900869
-0.00321773 -0.12251500 0.3007027
-0.08811206 -0.12352200 0.18618084
-0.01923532 0.09313684 -0.2298991
0.21415287 0.09447039 -0.22204237
-0.1706356 -0.08754520 -0.247045
0.11802258 -0.05600624 -0.03361276
-0.00789871 0.16774111 -0.21132495
0.27879675 -0.00782313 0.114191
0.1594533 0.17981236 -0.21532793
-0.18310247 -0.05027791 -0.25014701
0.07031964 -0.01111845 -0.12211967
0.02583047 0.06120431 -0.00675316
0.05187623 0.17062659 -0.21530336
0.10365719 -0.04917680 -0.05198719
0.06294785 0.12070305 -0.19661253
0.05058061 -0.05587346 -0.03459966
0.0622854 -0.17687701 -0.13013293
0.07633489 0.04108153 -0.16478409
0.29155946 -0.06523211 -0.25014701
0.08490308 -0.07623119 0.04755271
0.17043141 0.07476766 -0.18278985
0.09230858 0.22411689 -0.23573166
-0.15205434 -0.05314784 -0.04328125
0.34188711 -0.17687701 -0.1022297
-0.16317955 0.09630565 -0.18638703
0.1266473 -0.05739152 -0.02847538
0.17169593 0.17283234 -0.21389927
-0.03757423 0.15860698 -0.20950444
0.01512407 0.25942042 -0.24047799
-0.26485154 0.05724978 0.0184006
-0.00251363 0.09228129 -0.1863015
-0.16456474 0.19260554 -0.21884532
0.0274934 0.09397484 -0.18883711
0.11325721 -0.06417031 0.07189261
-0.13044669 0.15588024 -0.20795573
-0.29099301 0.02765851 -0.24349382
0.19068057 -0.06725773 0.10559944
0.07328644 0.05586836 0.02719105
0.33023199 -0.01762975 -0.01328307
-0.29099301 -0.08439984 -0.06396025
-0.12176195 -0.12251500 0.32953626
0.19251063 -0.05912165 -0.02425362
0.02182902 -0.05244743 -0.046594
0.14122103 -0.04253545 -0.06841915
-0.1479688 0.01879842 -0.14894774
-0.09320114 -0.02759902 -0.10622737
-0.00773889 -0.17687701 -0.11908368
0.13439632 0.22085447 -0.22768902
0.35194799 -0.13601524 -0.12776734
-0.15933237 -0.12251500 0.1692331
0.03574382 -0.06057589 -0.01905762
-0.06821046 0.15276844 -0.2178383
0.13362436 0.09451437 -0.22040747
-0.09242863 0.12401201 -0.19738782
0.02752527 0.07134728 -0.07127758
-0.10323004 0.13264173 -0.20024955
0.19375545 0.15237855 -0.20550553
0.35194799 -0.15490184 0.03344227
0.00942883 -0.03065551 -0.09255636
-0.06966005 0.22922244 -0.23046395
0.12057997 -0.00958865 -0.1240359
0.16409968 -0.09123812 0.06677766
-0.14130539 0.01284026 -0.14517981
-0.12879807 0.17562524 -0.21321443
-0.0809209 0.15467152 -0.20819937
0.32202455 -0.17680877 0.08697584
0.02353873 0.20997811 -0.22730529
-0.00389102 -0.12352200 0.21356455
0.14159387 0.24140320 -0.23575225
0.06186739 0.23944766 -0.23437876
0.14419189 0.03471415 -0.16122586
0.35194799 -0.01024035 0.10904406
-0.24444948 0.06760489 -0.04747266
0.04279825 0.13204296 -0.20005099
0.01287578 0.11008912 -0.19373781
0.09620424 -0.06116729 0.0545554
0.15910813 -0.12352200 0.35265329
0.06936992 0.14495943 -0.20530126
0.30449137 0.08128239 -0.13447941
-0.12708691 0.23539239 -0.23605583
-0.02757042 0.00150945 -0.13484957
-0.0464646 0.05324614 -0.17516134
-0.12596755 0.15493089 -0.21278843
0.14856246 -0.03159796 -0.10180514
-0.12697671 0.10931830 -0.19424745
0.19841699 -0.05449776 0.02091845
0.12464483 -0.17687701 -0.18281131
0.09298211 0.12074620 -0.19803714
-0.02626555 -0.04017855 -0.09183848
0.14424295 0.17989938 -0.21463179
0.09138839 0.17164717 -0.21318425
0.08583216 -0.02462993 -0.10190243
0.02937281 0.08524174 -0.18759656
0.08820988 0.04723074 -0.17161145
0.01141329 -0.03466767 -0.08771741
0.17703244 0.02984101 -0.15623157
-0.08821688 -0.08497433 -0.01758273
-0.25687551 -0.17687701 -0.14345011
0.09244629 0.09593596 -0.19322472
0.04730536 -0.08678772 -0.0137418
0.00263165 -0.02009095 0.114191
0.13968974 0.13809894 -0.20238123
0.01650706 -0.05922382 0.04678562
0.09008634 -0.08716180 0.05690661
-0.12199438 0.24451483 -0.2360591
-0.08423963 -0.01608180 -0.11886409
-0.13991028 0.22422761 -0.24153522
-0.09044484 -0.12251500 0.15938132
-0.00868537 0.11248651 -0.19300181
-0.29099301 -0.03826553 0.02114489
0.28368869 -0.17687701 -0.18182639
0.01121887 0.07773740 -0.11192772
0.324148 -0.11747279 -0.2019806
0.35194799 -0.09835449 -0.04528077
-0.08728158 -0.02678716 -0.09832587
0.07449312 0.16754047 -0.22273692
0.05198088 0.05224864 0.05021533
-0.04459921 0.14440602 -0.2150652
-0.0942854 0.02281872 -0.15426271
-0.1332355 -0.11590549 0.114191
0.13223854 -0.01095250 -0.12272324
0.06029468 -0.06649653 0.09007445
0.08437955 0.20838251 -0.22480216
0.03972153 -0.11699500 0.11570168
-0.08584372 0.09629203 -0.18960552
0.03468116 0.15028091 -0.20674337
0.324148 -0.06468537 -0.11869376
-0.04114247 0.16964621 -0.21252071
-0.01965312 0.22929753 -0.23230185
-0.263995 -0.14364438 -0.25014701
0.0115296 0.24360730 -0.23575815
-0.27098146 0.02540137 -0.25014701
-0.14884835 -0.02266977 -0.10515227
0.16179135 -0.02138998 -0.10598435
-0.27340827 -0.17687701 -0.00018424
0.26151271 -0.17687701 0.0099728
-0.16468848 -0.08334854 -0.0210263
-0.07540745 -0.04798110 -0.05442158
0.35194799 -0.08842353 0.00424381
0.00645764 0.12899204 -0.20418667
0.08116479 0.21741975 -0.23082079
-0.0944776 0.09408439 -0.21591717
0.33023199 -0.01657294 -0.10288993
-0.03528788 0.01043126 -0.1418943
0.05563601 0.07865385 -0.11775758
0.15699947 -0.01342617 -0.11893242
0.29029689 -0.17366094 0.09890974
-0.12856798 0.09586322 -0.18624031
-0.11588724 0.05903714 -0.17584132
-0.1246534 -0.04458816 -0.06495175
-0.09639954 0.06612874 -0.17851499
0.09639072 -0.03374248 -0.08776108
0.17608972 -0.03316990 -0.09020063
-0.25235249 0.04141652 0.09905125
-0.09721273 0.02091838 -0.15186436
0.01502161 0.04420277 0.09398583
0.01388766 -0.17687701 -0.09950924
-0.07543747 0.11224546 -0.19292188
-0.12206931 -0.06100681 0.05391381
0.04171643 0.04907231 -0.17143004
-0.09998881 -0.06001781 0.0499599
-0.29099301 -0.16475664 -0.09236055
0.26066257 -0.17687701 -0.16109808
0.14927227 0.05817150 0.01253726
0.19841699 -0.00228265 -0.13067017
0.14268199 0.18062346 -0.2164829
0.01840826 0.04322744 -0.16630916
0.18571916 0.18317783 -0.21644396
-0.15458378 -0.09544151 0.07957879
-0.08996705 -0.11699500 0.30790261
0.13376111 0.08948160 -0.18412409
-0.10880613 -0.13045501 0.114191
0.03057183 -0.05470142 -0.03865566
0.04993827 0.15114373 -0.21729952
-0.03703434 0.04372861 0.09496534
0.1117057 -0.17687701 -0.07941154
-0.10563023 -0.13932814 0.11468528
-0.0390292 0.18820655 -0.21867555
-0.14092351 0.01351146 -0.14356985
0.04298539 0.15369196 -0.20755207
0.13956936 -0.04407409 -0.06686828
-0.08074532 0.20645245 -0.22291313
0.13994426 -0.05691484 -0.0337407
-0.0739444 -0.03874053 -0.08096481
-0.12464463 -0.06567738 0.08206726
-0.12974285 -0.04222565 -0.06918567
-0.15755955 -0.09175236 -0.00051382
0.08022108 0.23153612 -0.23477703
0.10493192 0.01726016 -0.14785451
0.07662552 -0.01932744 -0.11012884
0.35194799 0.02103984 -0.01414991
0.17989103 -0.04379873 -0.06754956
0.01951873 -0.12352200 0.34326951
0.00680335 -0.02463878 -0.10361976
0.13682615 0.06864343 -0.05407758
0.03373707 -0.05472809 -0.03857073
-0.17580708 0.08272536 -0.24441433
0.16108801 0.19342821 -0.21984312
0.06977711 0.00464867 -0.13729544
-0.28337662 -0.17687701 -0.18845142
-0.08125588 0.24578200 -0.23720431
-0.29099301 -0.15454837 0.06381155
0.08310108 -0.17687701 -0.18175038
-0.0087512 0.09147610 -0.18478549
-0.14961963 0.07053277 -0.17908941
-0.02188605 0.01457719 -0.14532059
0.13427709 -0.17687701 0.01909362
0.15026044 0.05199403 -0.17253948
-0.01972197 -0.16927995 -0.24445794
-0.12513491 -0.11699500 0.27257946
-0.138376 0.22683332 -0.23180669
0.18249104 0.15533784 -0.20918587
-0.01940044 -0.03474206 -0.08513707
0.05014919 0.13083802 -0.21056585
-0.10438103 0.03855030 -0.16362957
-0.07458086 -0.02161958 -0.10862543
0.35194799 -0.00361384 0.00216623
0.07833428 -0.03446721 -0.08804976
-0.00057611 0.11909623 -0.19607968
-0.29099301 -0.11274908 -0.17131703
-0.05666754 0.07005135 -0.0630343
0.02917494 -0.17687701 -0.1928827
-0.03293189 0.17693495 -0.21590475
0.14779125 0.11029521 -0.19227515
0.08210753 -0.05131328 -0.05044801
0.12450873 0.26579502 -0.24440488
0.17698208 0.11382092 -0.1957406
0.16973793 0.06253856 -0.17643843
-0.08013099 0.05478968 -0.1726198
-0.01955313 -0.17687701 0.01118509
-0.15669756 0.26896292 -0.25588126
0.02849797 -0.13818969 -0.25014701
-0.01223488 0.11114802 -0.19183295
0.35194799 0.03230440 0.01854417
-0.13799293 -0.12352200 0.33072112
0.30063547 0.03693428 0.10447714
-0.13713752 0.12354792 -0.19896624
0.04111715 0.10531067 -0.18937321
0.07512785 0.24547510 -0.23766654
0.324148 -0.03779138 -0.07654264
-0.00127631 0.05725219 -0.1739604
0.13273143 0.00279557 -0.13325585
0.18448336 0.14710168 -0.20323165
0.05056764 -0.00167836 -0.13023925
0.07520907 0.24774527 -0.23660636
-0.12031372 0.13474601 -0.20191435
0.02620414 0.09435857 -0.18755436
-0.22343202 0.04555678 0.09033766
-0.11908682 0.26739998 -0.25008506
0.06048796 -0.17687701 -0.08873495
0.12413415 0.16436714 -0.2121801
0.1169227 0.14105496 -0.20368388
-0.13979354 0.04639908 -0.16731617
0.25400177 0.06239955 -0.01435805
-0.11510149 0.07345432 -0.18235433
0.19127777 -0.04600090 -0.06113397
0.07798363 0.10919027 -0.19762007
-0.057652 0.00983740 -0.14164474
0.16749825 0.06865737 -0.1784675
0.35194799 0.06688040 -0.13945369
0.15050907 -0.13107719 -0.25014701
0.21081364 -0.16345223 0.10993663
0.09446068 0.21231654 -0.22731547
-0.22036809 -0.17616630 0.09198049
0.16514997 0.00294695 -0.25014701
0.26451014 -0.17687701 -0.05314376
0.10840085 -0.09446426 0.00707823
-0.12818043 -0.11797702 0.36632401
0.09485813 -0.06368406 -0.247045
-0.12991786 0.16108563 -0.20911791
0.14166321 0.22884309 -0.23158715
-0.06543596 0.20104771 -0.22357853
0.00219634 -0.05131026 0.114191
0.12994636 -0.17687701 -0.1590144
0.12748976 0.04145677 0.09898828
-0.11453953 -0.17687701 -0.18737859
0.324148 -0.08435459 -0.03963585
-0.12334738 0.23913814 -0.23729799
-0.0325827 0.01729711 -0.14929077
0.32402078 -0.08298725 0.114191
-0.10815593 0.03676929 -0.16171943
-0.1167967 0.10799009 -0.192719
0.023214 0.11763836 -0.19527424
0.00995529 0.09354988 -0.228554
0.00477696 0.08141866 -0.18326332
-0.00892148 -0.05333232 0.114191
-0.0329878 0.00835905 -0.13861067
-0.29099301 0.03669929 0.0960689
0.16778211 0.12245631 -0.19751625
0.07073056 0.03037696 -0.15890847
0.0788468 0.01108808 -0.25014701
0.324148 0.07068775 -0.11356983
0.17174382 -0.12251500 0.34227304
0.35194799 0.06033376 -0.13688056
0.18731785 -0.04937076 -0.05452904
-0.13232223 -0.04300626 -0.06797928
-0.13998602 -0.05236233 -0.25014701
-0.05979845 0.21149949 -0.22639979
0.29774758 0.06839906 -0.05252407
0.19835199 -0.11822932 0.36101438
-0.01867193 0.12024847 -0.19646178
-0.29099301 -0.00437671 0.05100193
0.15006375 0.12584947 -0.19799715
-0.15347687 0.14756295 -0.20519762
-0.13537337 0.17556292 -0.21319376
0.08074959 -0.12251500 0.2839749
0.16983306 0.13620141 -0.20207436
0.0956204 -0.11276500 0.21573497
0.10914809 -0.05837167 -0.02664243
-0.08272276 -0.02301831 -0.10457442
0.10202839 0.04780422 -0.16956183
-0.29099301 -0.07125664 -0.09581348
0.11380724 0.22053012 -0.23185224
0.18720835 -0.04452075 -0.06511854
0.324148 -0.00638585 0.03361989
0.324148 0.08166543 -0.20774093
-0.06102151 -0.12251500 0.30499238
-0.22432276 0.04737506 0.08121782
-0.29099301 0.01742757 -0.01071333
0.324148 -0.00986137 0.01436207
0.16187458 0.11038300 -0.19383527
0.324148 0.05375617 0.02481673
-0.04130333 0.06003870 0.00065965
-0.10634869 -0.11699500 0.34277893
0.17036404 0.06753212 -0.18111542
-0.16072173 0.19366037 -0.22423082
-0.04149082 0.21900584 -0.23134677
-0.07105999 -0.05927572 -0.0240853
0.10916828 0.01362966 -0.14638263
-0.03283706 -0.02790615 -0.09647065
0.11583951 0.26562181 -0.24949539
-0.04406867 0.22905677 -0.23467983
0.00428397 0.06926798 -0.05805002
-0.15987127 -0.12352200 0.30948916
-0.29099301 -0.08783207 0.01399067
0.24034549 -0.07735501 -0.247045
-0.00319024 -0.17687701 -0.16055684
-0.27413204 0.05524660 -0.25014701
-0.10235777 -0.01556923 -0.11932987
-0.25751402 0.05472153 0.03091505
0.08953277 -0.12251500 0.19243635
-0.165261 -0.04793978 -0.05451716
-0.28466685 0.08778874 -0.23971277
0.14850895 0.02480819 -0.15313502
0.24865935 0.01754173 0.11391055
-0.14442558 0.02920461 -0.15698794
0.09528286 0.06401569 -0.02464069
0.01260099 0.06693107 -0.17878105
-0.14720128 0.07195568 -0.17831227
-0.1465961 0.06561846 -0.17802377
0.01691816 -0.12352200 0.16698121
-0.1575224 0.20954708 -0.22671936
-0.16375208 -0.03268756 -0.08995331
0.00976005 0.22047288 -0.22937548
-0.11069532 0.02332386 -0.15462169
0.00161596 0.16947509 -0.2149215
-0.16074045 -0.07905720 0.04931055
-0.08500543 0.01778713 -0.25014701
0.05781561 0.01466033 -0.14558605
-0.29099301 0.03501637 -0.05251772
0.15778743 0.14502568 -0.20435622
0.13955282 0.24790596 -0.23847264
-0.16123151 0.12437879 -0.19924177
-0.13463983 -0.05838771 -0.02691386
-0.2172032 0.03350649 0.10741789
0.008008 -0.11699500 0.14952709
-0.17919156 0.04607898 -0.25014701
-0.06483573 -0.08767129 0.05786023
0.16103668 0.17189758 -0.21423429
0.00704498 0.05582703 -0.1729638
-0.06735836 0.19142950 -0.21793133
-0.14897088 0.14247963 -0.21442638
0.18706725 0.02584977 -0.15428105
0.11914763 -0.13221969 -0.25014701
0.324148 -0.00576321 -0.05227447
-0.14531206 0.15377341 -0.20757908
0.35194799 -0.07288315 -0.10443984
0.02595288 -0.04052065 0.114191
0.324148 -0.05830348 -0.04391592
0.19517151 0.00109081 -0.13161502
-0.14803823 0.25868640 -0.25296227
0.33405655 -0.17687701 0.01837503
0.324148 -0.04914088 -0.1298721
0.10970202 0.09080722 -0.18883385
0.27706008 0.05660351 0.02251256
0.11903222 -0.13873131 0.11577844
0.18692592 0.06541824 -0.03356098
0.09354968 0.02258269 -0.15147948
0.26840804 -0.08657429 0.114191
0.18193705 0.02873138 -0.15741697
0.15974593 0.08170170 -0.1840013
0.33987662 -0.16396017 -0.24796693
-0.04334725 0.08126822 -0.1343884
0.16856316 -0.11276500 0.33954324
-0.02714059 -0.17687701 -0.13559345
0.06806519 0.02259715 0.11283401
0.18251064 0.19116309 -0.21965598
0.09104965 -0.04349067 0.114191
0.08292229 -0.05883137 -0.02614522
0.17332024 -0.05896253 -0.02476043
0.13756968 0.10645230 -0.1915648
0.05769566 0.24927809 -0.24984234
-0.0782855 -0.02683947 -0.0976746
0.11353569 -0.06135527 -0.01746137
-0.15829712 -0.17687701 0.03434815
-0.00145191 -0.03873568 -0.07670285
0.02860707 -0.06287912 0.0631754
-0.00527885 0.02728219 -0.15670905
0.01283658 0.22263144 -0.2310583
0.06103194 -0.07396515 0.09865721
0.04087384 -0.10360868 0.08743646
0.15457083 0.07213031 -0.07625885
0.17361536 -0.11524889 0.36632401
-0.11921286 0.21865939 -0.22909611
-0.03648788 0.23453683 -0.23544927
-0.2411094 0.04950102 0.06769329
0.16532698 0.07190040 -0.18183902
0.02246784 0.19544378 -0.22107551
-0.29099301 -0.10539363 -0.15574362
-0.04631706 0.07739035 -0.10972006
0.15965623 0.13319375 -0.2007546
-0.29099301 0.07833580 -0.17195855
0.08905029 -0.02992697 -0.09453023
0.13039065 0.06892511 -0.05586942
-0.14692597 0.01351765 -0.14518684
-0.06933837 -0.03037354 -0.09334646
0.12701002 -0.04704177 -0.05996865
0.00247544 0.05298441 0.04553558
-0.03241045 0.01759878 -0.14753116
-0.15281268 -0.05550227 -0.07113305
-0.05042747 0.02612186 -0.15286342
0.02492454 0.04692644 -0.17034799
0.12849665 -0.06562012 0.04504441
0.05949213 0.11246495 -0.20447306
0.16735106 -0.12352200 0.28452512
-0.29099301 -0.07935735 -0.22824419
0.03541008 -0.05421234 -0.03989065
0.324148 0.00836848 -0.22497715
0.18552992 0.07529277 -0.18296398
-0.07704247 -0.04558682 -0.06461594
0.1715759 -0.12251500 0.29753525
0.16877971 -0.05198172 -0.04633628
0.324148 -0.09875093 0.11123683
0.07528951 -0.11276500 0.16747545
-0.03725352 -0.06223273 -0.01498927
0.19841699 0.02470379 -0.09855242
0.17001793 -0.17257742 0.10083385
-0.11061791 0.12590943 -0.19801703
0.18131785 0.13524916 -0.20357158
-0.12004363 -0.11699500 0.29295854
0.19841699 -0.07677631 -0.02504764
0.05574823 0.14034298 -0.20151438
0.33023199 -0.03057527 0.01255609
-0.09339925 0.03066633 -0.15556912
-0.09239903 -0.12352200 0.35098787
0.29340116 -0.17687701 -0.00347717
-0.14084378 -0.04346707 -0.06683915
-0.03939402 0.21314246 -0.22565562
-0.07118002 -0.06093153 -0.01848884
0.07234055 0.11012461 -0.19419258
-0.05731693 0.12708383 -0.2093209
-0.06771911 0.02503499 -0.15156699
-0.10938494 -0.05049145 -0.04873448
0.06412211 0.12887661 -0.20073333
0.345824 -0.01782271 -0.15331014
0.05046888 -0.00086010 -0.13199328
-0.14950314 0.03936685 -0.16388749
0.03106424 0.22769858 -0.23350443
-0.02957208 0.02748315 -0.15685187
-0.10924412 -0.11699500 0.3440871
-0.02263913 0.06011535 0.00016893
-0.11406869 0.00456871 -0.13568748
-0.05888428 0.05160574 0.05430419
-0.05255082 -0.08933396 0.084528
0.18386954 -0.00368328 -0.13004159
0.12032653 -0.00691891 -0.12692742
5.831e-05 -0.12251500 0.28513985
0.0635626 -0.05718031 -0.02914812
-0.11856677 0.02601302 -0.15351106
0.04349863 0.19746465 -0.22174566
0.16889293 0.01209082 -0.14490156
0.14921197 -0.11276500 0.19752121
0.14454466 0.09194468 -0.18772088
-0.05104472 -0.17687701 -0.09808886
0.09100769 -0.10901733 0.06733268
0.09226199 -0.05715294 -0.0292353
-0.0190442 0.07247908 -0.18153311
0.14111612 -0.03202431 -0.08996495
-0.0416729 0.09912357 -0.1891345
0.2123766 0.07279108 -0.0804623
-0.10907914 0.12693813 -0.19976816
-0.29099301 0.03650708 -0.15468208
-0.12210322 0.12595679 -0.19803273
0.25437849 -0.17687701 -0.01934563
0.10429605 -0.00322970 -0.12906815
0.04728177 -0.00555080 -0.12824417
-0.00054865 -0.12352200 0.23761753
0.23957596 -0.12382100 -0.24817193
0.04609186 0.10522418 -0.19180177
-0.07401076 -0.03013517 -0.09309705
0.14475867 -0.03035459 -0.09059825
-0.08813902 -0.17687701 -0.17568808
-0.16086895 0.11042686 -0.1915938
-0.06748212 -0.11699500 0.12216112
-0.165261 -0.03286806 -0.0904351
-0.14619538 0.13122847 -0.20119089
-0.01230355 0.26052173 -0.24297819
0.07606388 0.25703755 -0.24323375
0.18938337 0.19909344 -0.22293046
0.01509379 -0.08625178 -0.01487697
0.21460422 -0.12382100 -0.249604
0.03420019 -0.06059034 -0.02098558
0.31103726 -0.11427469 -0.25014701
-0.12076704 0.21124665 -0.22877368
0.11875955 -0.12352200 0.32813887
0.07256865 -0.13105707 0.12983467
0.18541601 -0.12251500 0.32149291
-0.14667591 0.01835480 -0.25014701
0.03959818 0.05749515 0.01684289
-0.03176884 -0.17687701 -0.08819822
-0.14473402 0.08654031 -0.18592872
0.19403873 0.12468220 -0.19825439
-0.29099301 -0.05698807 -0.14180173
0.10080709 -0.05917878 -0.02407166
0.02915492 0.24555074 -0.23769162
-0.018652 0.07817289 -0.18315398
0.28442385 0.03935422 0.10183166
0.19719874 0.04958150 -0.17082493
0.16322345 -0.12352200 0.29069758
0.30337698 0.07369247 -0.08619718
0.1859328 0.16210192 -0.20945492
0.03252369 0.13742385 -0.20280236
0.12409735 0.09287211 -0.18706143
0.19841699 -0.06947333 0.01198727
-0.0490611 0.22437913 -0.23208085
-0.14338832 -0.03161748 -0.08902812
-0.16007994 0.09190244 -0.18545087
0.05066307 0.15743016 -0.20987971
0.08610685 -0.09274961 0.00227802
-0.08285611 -0.11699500 0.12392375
0.17221691 0.24304505 -0.23557171
-0.02888133 0.16860744 -0.21282077
0.26397394 -0.06357121 0.114191
0.05396777 -0.05911256 -0.02428259
0.0964126 0.07626816 -0.17974234
0.05857395 -0.12352200 0.30555671
-0.05447009 0.15686865 -0.20828351
0.03849454 -0.03997743 -0.07776924
-0.08126767 0.01314502 -0.14591619
-0.0908835 0.26593922 -0.2461857
-0.03091612 -0.01199443 -0.11974554
0.20328705 -0.17687701 0.05432701
0.10982372 -0.10299729 0.03620756
-0.29099301 -0.14005810 0.05184297
0.02941921 0.20138064 -0.23395883
0.18526923 0.05138367 -0.1721057
0.16093343 0.22732279 -0.229834
-0.09630987 -0.00766305 -0.25014701
0.19603313 -0.06556476 0.08130693
0.18294885 0.00201305 -0.13322767
-0.05656549 0.11815750 -0.19415738
-0.09607078 -0.15437653 0.11353798
0.10416732 0.08104161 -0.18132528
0.17122929 -0.06221999 -0.01535185
0.01747156 -0.04904123 -0.05425632
-0.09201282 0.05179009 -0.17055932
0.00448173 0.13777431 -0.20138757
0.35194799 -0.10543182 -0.18601568
0.13078769 0.08380264 -0.18348987
-0.15957951 -0.06325018 -0.01142558
-0.09420723 0.11283535 -0.19186849
0.19249248 0.19882509 -0.23311137
0.11078719 -0.06230860 -0.01551262
-0.13713538 0.04524366 -0.16645307
-0.09377907 -0.01164731 -0.12289378
0.26884835 0.07026114 -0.06437028
0.008618 -0.11367926 0.29206899
0.02527972 -0.02222141 -0.10589564
0.03981378 0.25610587 -0.24183678
0.04109044 0.03299368 -0.15847214
-0.00668789 0.09767906 -0.18809147
0.35194799 0.07498393 -0.20750611
-0.02203695 -0.05924266 -0.02386817
-0.07561224 0.12920439 -0.19729668
-0.05046456 -0.12251500 0.26503428
-0.14382399 -0.11276500 0.1657585
0.09058557 0.11557363 -0.19402554
-0.07411466 0.22009257 -0.23065937
-0.15654769 0.14925741 -0.20394652
0.08767533 0.21748566 -0.22709588
-0.01425346 -0.06087179 -0.01932412
0.00801589 0.19529063 -0.22102473
-0.29099301 -0.00974471 -0.0598083
0.10046949 0.20513870 -0.22525748
0.18455549 -0.17687701 -0.1027407
0.18738554 -0.01951465 -0.1085703
0.10801724 0.15433798 -0.20990177
0.1211411 -0.12352200 0.19251527
0.1877029 0.22860220 -0.23239327
0.16536493 -0.11815901 0.114191
-0.0836606 -0.12251500 0.25642673
0.19243126 -0.17687701 -0.07564303
0.15125247 -0.05909137 -0.02306108
0.04616296 -0.11169750 0.09243396
0.10090999 -0.06509651 0.07814561
-0.10874154 -0.02637500 -0.1004192
0.16850609 0.22760728 -0.23174134
0.04593215 0.08543755 -0.18768959
-0.03001289 -0.17687701 -0.1937712
-0.13303248 -0.04487132 -0.06533877
-0.08555442 -0.17333038 0.09958037
0.02867964 -0.05793437 -0.02674632
0.10713226 -0.11276500 0.24395898
0.0284252 0.23259279 -0.2321056
-0.04864253 0.26758365 -0.25591273
-0.13191695 0.19733536 -0.22266979
0.324148 0.00917074 -0.0508316
0.18206654 -0.05510560 -0.03769045
-0.09523977 -0.02012738 -0.10936743
0.18039774 -0.12352200 0.20804847
0.35194799 -0.05989745 0.07038614
-0.03906743 0.17656350 -0.21545914
0.324148 0.05546265 -0.21226454
0.13508203 -0.17687701 0.01946817
0.09550904 0.19245723 -0.22254278
0.1885451 0.05194458 -0.17069133
-0.11104013 -0.06229355 -0.01479556
0.30328002 -0.13620278 -0.25014701
0.04241411 -0.03795769 -0.07924166
0.06301397 0.18753682 -0.21664046
0.14582641 0.16014461 -0.20969185
-0.06546703 -0.06620887 0.0856555
0.324148 -0.08525017 -0.12223217
-0.06150581 -0.11699500 0.32146349
0.3385005 0.04689749 0.08425604
0.22061381 -0.17136964 0.10264084
0.06378576 -0.17687701 -0.07603469
-0.19665709 0.04975824 0.06605697
0.14365788 0.03999923 0.10104446
0.03203689 0.03182741 -0.16066485
0.324148 -0.15282112 -0.224203
-0.15110389 0.11735742 -0.19518107
-0.11661909 -0.05794459 -0.02973531
-0.02604351 -0.02203145 -0.10492084
-0.13895346 0.07933347 -0.18398184
0.183602 0.02486340 -0.15422504
0.07615589 -0.14281504 0.114191
0.13878086 -0.08107929 -0.247045
0.15909435 0.05429613 -0.17481957
0.33600068 -0.17687701 -0.19311268
0.35194799 0.06639603 -0.11529807
-0.165261 0.03741965 -0.12319141
-0.04033291 -0.06386730 -0.00913789
0.324148 -0.03244216 -0.13161213
0.00232126 -0.05168437 -0.04707198
0.07487353 -0.17687701 0.05618855
0.324148 0.02533034 -0.0974753
0.15494785 -0.13817643 0.114191
0.18620435 0.21338394 -0.2273467
-0.08026743 -0.05882882 -0.02518633
-0.07996346 0.02884266 -0.15479706
0.09179753 -0.05784693 -0.02928082
0.13400717 -0.11276500 0.23653282
-0.14114348 0.01587564 -0.14751552
-0.10040512 -0.06356846 0.06782933
-0.10029702 -0.02203105 -0.10621124
0.1471134 -0.07311614 -0.04230709
-0.04944978 0.02278034 -0.15177764
0.03228521 -0.03038411 0.114191
-0.10880408 0.12211784 -0.19921701
-0.07244259 0.24736136 -0.24343992
0.17510967 -0.00606804 -0.12544966
-0.12270434 0.01378731 -0.14576934
0.02002542 0.26509785 -0.24932164
0.08541528 0.00051824 -0.1305404
-0.08974825 -0.17687701 -0.06708639
-0.09172332 -0.10164181 0.03078738
0.17382509 0.08516731 -0.18623856
0.14657736 -0.11276500 0.32439524
0.11852163 0.00620994 -0.13815344
0.35194799 -0.07290210 0.1040109
0.18460568 -0.17687701 0.0135632
-0.13537919 0.09244872 -0.18563202
0.01255488 0.09709158 -0.19091786
0.09696249 -0.17687701 -0.07895889
0.14639104 0.12085553 -0.19775109
0.11286373 0.00159030 -0.13511721
0.05412647 0.02488179 -0.15500311
0.07737394 -0.00198486 -0.1324017
0.09975447 0.04596544 -0.16857703
0.24872614 -0.16009319 0.11171557
0.11233502 -0.05300892 -0.04372374
0.17515973 0.04781307 -0.17053512
-0.14921871 -0.02390509 -0.10253954
-0.01280837 0.14209431 -0.20584155
0.07066157 0.15112658 -0.20456635
0.05639214 -0.01010584 -0.12458529
0.17184502 0.22425456 -0.23062953
-0.10747033 -0.12251500 0.28942502
-0.02053405 0.26340052 -0.25452554
-0.07688714 -0.02494544 -0.25014701
-0.11210789 0.01081389 -0.14322944
0.05682282 -0.06275751 -0.01267275
-0.165261 0.03196825 -0.14604485
0.03061825 -0.05640615 -0.03290296
-0.11815736 -0.02123358 -0.1075334
0.15533998 0.02913911 -0.15629675
0.16779895 -0.11276500 0.12437828
0.11072193 0.04870536 0.07275491
0.11857132 0.02212252 -0.15131014
0.05047767 -0.12251500 0.28173994
0.03873141 0.02718856 -0.15490577
0.06635225 0.24798434 -0.24023155
0.22424525 0.04650126 -0.25014701
-0.21140493 0.05235662 0.03889107
-0.15023944 0.02814753 -0.15502804
-0.12857619 -0.03015359 -0.0933885
0.0397732 0.14828578 -0.20608175
0.324148 -0.02036826 -0.18021371
-0.02802658 -0.17687701 -0.03993458
0.35194799 -0.14582562 -0.04223933
-0.0056578 0.05701570 -0.17613798
-0.00324838 0.07844483 -0.18400927
0.0506893 0.15159600 -0.20653502
-0.11060967 -0.05678910 -0.03200584
0.01906659 0.16284437 -0.21272264
-0.14377776 0.24406564 -0.24811381
0.14978075 0.08905436 -0.18523141
0.11210664 0.19576214 -0.22363875
0.09628996 0.24573773 -0.23872064
0.10279725 -0.02471970 -0.10271998
0.00466796 -0.05749054 -0.03009399
0.16275882 0.14141871 -0.20561751
-0.08320904 0.22423422 -0.24153742
0.05742916 0.14994733 -0.2041753
0.35194799 -0.06723466 0.03156948
0.09258468 0.20310663 -0.22232761
-0.05829232 0.10806830 -0.20301507
-0.05725964 0.07917696 -0.18195594
0.00925126 0.12870870 -0.1989453
-0.0052743 0.19050905 -0.21815009
-0.1390156 0.03342016 -0.16030624
0.00681785 -0.12251500 0.26086856
0.35194799 -0.16753680 -0.18752408
-0.03028573 -0.05810811 -0.02748192
-0.06171015 -0.05447854 -0.0407756
-0.05257342 0.17995048 -0.21767032
0.05931494 0.00828095 -0.13982472
0.0401582 -0.02092598 -0.10868739
0.0271132 0.23595729 -0.23592032
-0.10809844 -0.12352200 0.22167847
0.0705253 -0.00942886 -0.12221489
-0.08273189 0.02318041 -0.15451975
0.13907802 -0.05302378 -0.0436764
0.14476396 0.07430766 -0.18034121
0.35194799 -0.10670058 0.07004347
-0.0269084 0.02021391 -0.1493897
-0.22001182 -0.17687701 -0.18361948
0.15083665 -0.02420970 -0.10433115
-0.10316637 0.07203364 -0.07564431
0.07754374 -0.03420752 -0.08634531
0.19538112 -0.05442928 -0.04060963
-0.14593011 0.11252377 -0.20449257
0.35194799 -0.08563659 0.10737507
0.04231821 0.25575149 -0.24622223
-0.14540441 0.10923712 -0.20340267
0.15783463 -0.05655904 -0.03185199
0.1741579 0.13317693 -0.20107139
-0.0546595 0.14546873 -0.20591314
-0.01773244 0.19380183 -0.22149803
0.17460726 -0.02884745 -0.09362058
-0.06541817 -0.06142173 -0.01938547
0.0611973 -0.04771885 -0.05861604
-0.11603632 0.16032753 -0.20975251
0.3286852 0.07368946 -0.24897123
-0.20105221 0.03046320 0.10944549
0.22077289 0.08332508 -0.14747619
0.05592088 -0.00700436 -0.12652317
0.18193939 0.02857921 -0.25014701
-0.26410279 -0.17687701 -0.05920357
-0.00812257 0.15323080 -0.20707715
0.16313878 -0.06341799 -0.01230108
0.19965074 0.06141337 -0.00808461
-0.02203481 -0.08188833 -0.247045
-0.16407978 -0.11276500 0.32529724
0.02673506 0.19270584 -0.22262522
0.08871405 -0.04039348 -0.0759748
-0.26255444 -0.17687701 0.00648831
-0.0482166 0.00682483 -0.13842325
0.13100236 0.16246759 -0.21014018
0.17297011 0.09532928 -0.19162259
0.00623102 -0.00175357 -0.13016687
0.01445393 -0.06004270 -0.02228691
0.16114717 0.26590740 -0.25535686
0.12810416 -0.00268002 -0.12927519
0.00891452 0.11804949 -0.19541057
-0.01887338 0.01383183 -0.14613419
-0.16283895 0.09712514 -0.18790778
0.13708967 -0.04085957 -0.09091827
0.324148 0.04664757 0.01668235
0.06892962 0.11296057 -0.19372302
-0.11678008 -0.03708305 -0.08222273
0.07253955 0.01028977 -0.14316812
0.13762456 0.19244876 -0.23099688
0.04303312 0.02588996 0.11171601
0.07858248 -0.02607293 -0.10196702
0.05077271 0.12412098 -0.19613495
-0.15627891 0.04618591 -0.16712271
0.06371842 0.15673910 -0.20997302
0.01706236 -0.04821887 -0.05508228
0.09060102 0.17029988 -0.21273747
0.04440899 0.26544049 -0.24247432
-0.04121996 0.03028112 -0.15581936
-0.10839559 0.04890291 0.07149828
0.35194799 -0.11164356 -0.23720689
0.30632185 -0.05418783 0.114191
0.06455095 -0.06375258 -0.01014828
0.19828714 0.05400144 -0.17396613
0.09146942 0.17914650 -0.22658566
-0.29099301 -0.14121013 -0.01721693
0.02487271 -0.05731893 -0.02818262
-0.0507488 0.15610363 -0.20976229
0.15897146 -0.17687701 -0.11037118
-0.29099301 -0.00000136 -0.07045624
-0.04343015 0.15388753 -0.20761693
-0.05838026 -0.05426005 -0.04219668
0.00161233 -0.09882589 0.06113056
0.33763743 -0.05600281 -0.14591435
0.35194799 0.00306965 -0.20493425
-0.11390217 -0.06243630 -0.01188289
-0.16525046 -0.11909864 0.114191
0.02570671 0.05295221 -0.17125842
0.0480705 -0.05620066 -0.03496749
0.13532379 -0.12251500 0.34221884
-0.21820884 -0.17687701 0.04995249
0.05332592 0.04127440 -0.25014701
0.0779269 -0.06208999 -0.01423495
-0.13780535 0.12848783 -0.1995164
-0.04523339 -0.04096184 -0.07501159
0.07373012 0.13270795 -0.1984585
0.18706589 -0.05242560 -0.04620504
-0.0855889 0.21904721 -0.23405047
-0.02690944 -0.04052715 -0.07499916
-0.06040825 -0.12251500 0.31828785
0.324148 -0.00527266 -0.12853396
-0.08119894 -0.11699500 0.32955586
0.16778473 -0.12251500 0.26415609
-0.08126256 -0.10218072 0.08666289
0.06613336 0.06428058 -0.17931215
-0.12071954 0.05351498 -0.1723314
-0.07604511 0.02744369 -0.15327882
-0.04441908 0.17160184 -0.21381377
-0.11035518 0.12662597 -0.19696564
0.23666328 -0.10491844 -0.247045
-0.09618205 -0.12251500 0.33741936
-0.03874817 0.07532422 -0.18297442
0.10585796 -0.12352200 0.19025791
0.17141787 0.14584238 -0.20333805
-0.26691249 -0.09588133 0.114191
0.03418819 -0.08898860 -0.00825107
0.02073899 -0.04122051 -0.07114858
-0.08235662 -0.02263824 -0.10339156
0.0319514 -0.12251500 0.16511166
-0.09301816 -0.11699500 0.25330109
-0.02028548 -0.05673353 -0.03250522
0.1270802 0.22417639 -0.23306141
-0.16274171 0.09701334 -0.18843472
0.07988029 0.16091741 -0.20962612
0.03440029 0.09339534 -0.22918563
-0.16506225 -0.12251500 0.31104019
0.02737445 -0.01175939 -0.11924676
-0.02697241 -0.12352200 0.27445552
-0.06931587 0.02578041 -0.15564175
0.16276517 0.20931662 -0.22438692
0.01740381 -0.17687701 -0.11627853
0.00042895 0.09886647 -0.18723623
0.10118784 -0.01454419 -0.11850041
0.1464099 0.00485967 0.114191
0.03967626 -0.04471890 -0.06676327
0.07712051 0.17029305 -0.21337975
-0.17751965 0.09385572 -0.21446276
-0.09123078 -0.01752727 -0.11367828
-0.00783701 -0.15084044 -0.25014701
0.18126228 0.11182502 -0.19431346
-0.00736193 -0.04745639 -0.05571981
0.11391458 -0.00776657 -0.12470158
-0.07682201 0.10459855 -0.1934073
-0.13644513 -0.12251500 0.31226724
0.11543898 -0.12352200 0.28580449
0.11992497 -0.06393151 -0.00712037
-0.16294158 0.19706881 -0.23252896
-0.03508634 0.14268141 -0.20357883
-0.08720683 0.18008101 -0.22689555
-0.165261 -0.01608583 -0.04917488
0.09111327 0.21454974 -0.22914404
0.04150671 0.26359860 -0.24238753
-0.15195225 0.14384194 -0.2056961
-0.10979395 -0.05767603 -0.03131618
0.0855842 0.14566985 -0.20521426
-0.0303996 0.10576531 -0.18952397
-0.25502988 0.07309852 -0.08241932
-0.29099301 -0.01504043 0.03030941
0.32067351 0.09356402 -0.22848561
-0.10943251 0.03236518 -0.16032147
0.1745583 -0.01572222 -0.11610594
-0.08621907 0.07453419 -0.17916733
0.28553642 -0.17687701 -0.1481478
0.08661318 -0.11123447 0.08298981
0.16132162 0.01157399 -0.14299414
0.12352474 0.15479741 -0.20791865
-0.05651394 -0.02762096 -0.09835347
-0.15910705 0.24454221 -0.23832419
0.1318862 0.06048862 -0.17664465
-0.10378073 -0.11699500 0.29230593
-0.09946905 0.03741009 -0.25014701
0.29427553 -0.17687701 -0.1819164
0.09417969 -0.00051243 -0.13007192
-0.10582947 0.11720593 -0.19609784
0.17322982 -0.02920263 -0.09573115
0.18279176 0.23069043 -0.23373076
-0.1232007 0.01453358 -0.14402963
0.35194799 0.06286350 -0.02600403
-0.10860505 0.23960206 -0.23668597
0.04781022 0.22731399 -0.23410189
-0.09837305 -0.05878844 -0.02595994
0.15239759 0.22413857 -0.23123586
-0.29099301 -0.02361482 0.08974928
0.16734484 0.14134345 -0.2140496
0.00953225 -0.11699500 0.27863774
-0.24294661 -0.15386104 -0.25014701
0.15258406 0.08489617 -0.1847385
-0.29099301 0.01404899 0.04495676
0.26330243 -0.11932641 0.114191
-0.12800664 0.00633592 -0.14041041
-0.14999128 0.01473065 -0.1474423
0.28789993 0.07511166 -0.09522564
0.07067044 -0.12382100 -0.24948419
0.06655378 0.01208737 -0.14594615
0.04938115 0.02226363 -0.15084641
0.324148 -0.17374229 -0.07479655
0.14948755 -0.17687701 0.03689227
0.00663585 0.07105098 -0.18085463
0.12681596 0.05749790 -0.17533089
-0.09043197 -0.17687701 -0.04016129
0.02325384 0.05107351 -0.17059627
0.17125773 0.06515026 -0.03185625
0.03121735 0.03989386 -0.16567202
-0.16179677 0.04161925 -0.1644407
0.01094736 -0.01813142 -0.11408662
0.08431094 -0.12352200 0.16650083
0.15468618 0.11135010 -0.19459897
0.0308966 -0.03923980 -0.25014701
0.18726428 0.07493732 -0.18208102
-0.1190912 -0.04998728 -0.05159368
-0.11431817 -0.13833790 0.114191
-0.165261 -0.03246443 -0.0946421
-0.13535875 0.18858274 -0.22021031
0.0890887 0.07419269 -0.18030309
-0.11669458 -0.13499962 0.12261345
0.03132223 0.12554705 -0.19821886
0.01145841 -0.05491705 -0.03635702
-0.05706146 -0.17687701 0.04596991
0.07292596 -0.05341982 -0.07394685
0.09306514 0.18354995 -0.21584236
-0.03284988 0.13490899 -0.20614883
0.0074681 0.18283779 -0.21786221
-0.28349649 -0.17687701 0.07415707
-0.01645164 0.08661300 -0.18442182
-0.07040433 0.04555903 -0.16861042
0.14071137 -0.17687701 -0.22693763
0.08795587 -0.12251500 0.27164871
0.34512741 0.06248317 -0.25014701
-0.29099301 -0.06457005 -0.24766916
0.12580982 0.06082168 -0.17784309
-0.10363853 0.00770564 -0.139271
0.324148 -0.09884452 -0.1122875
-0.00945631 0.04228783 -0.16507738
0.06565208 -0.17687701 -0.21882821
0.324148 0.00909257 0.10626535
0.17275291 0.06332927 -0.17867464
-0.11559415 -0.04785830 -0.05827104
0.19275749 0.05965336 0.00311145
0.02320017 0.09686323 -0.19353222
-0.17641077 -0.07942248 0.114191
0.02124699 -0.05784511 -0.06783376
0.05215731 -0.01468575 -0.11643016
-0.09745422 0.23521295 -0.24517813
-0.25716634 -0.17687701 -0.02108622
0.04241172 0.08146256 -0.13562465
0.14826408 0.01344632 -0.14468296
-0.07135889 0.19558893 -0.22055965
0.00137707 0.12059365 -0.19798655
-0.04222638 -0.01565835 -0.11850883
-0.22899009 -0.13033461 0.114191
-0.05807801 -0.12352200 0.1665329
0.14807285 -0.04592893 -0.06304451
0.14762509 0.09168892 -0.18840124
-0.00957256 -0.11699500 0.30002073
-0.02508186 0.17364010 -0.21416713
0.1436679 -0.10768228 0.05831961
-0.22841514 0.08682245 -0.16972301
0.06684119 -0.10007549 -0.247045
-0.29099301 -0.03466530 -0.05400457
-0.02287309 -0.14228828 -0.25014701
0.19440758 -0.03430737 0.114191
0.01617803 0.14764781 -0.20587019
0.34314329 -0.09992262 -0.25014701
0.03530569 0.16923501 -0.21182034
0.13366258 0.18075039 -0.22711753
-0.01278954 0.07709996 -0.2477011
0.23226303 0.06294373 -0.01781977
0.19841699 -0.05511026 -0.04545946
0.22565087 0.04944846 0.06802888
-0.12645978 -0.02687080 -0.0985092
0.3406292 -0.05612600 -0.07183276
0.08777038 -0.17687701 -0.01855753
-0.04906928 -0.01631390 -0.11568997
-0.28425864 -0.03329012 0.114191
-0.09771788 0.15998739 -0.22023221
0.05898284 0.24231920 -0.23662
0.1343574 0.00284418 -0.13555863
0.07884342 0.03018827 -0.15845237
-0.16260943 -0.12251500 0.24789218
0.17487105 0.15291097 -0.20870355
-0.09066623 -0.01389810 -0.1202102
-0.13221168 0.25612617 -0.24063458
0.324148 -0.03662909 -0.01434384
-0.12279738 -0.12251500 0.27472567
0.04347509 -0.08824424 -0.247045
-0.05351753 0.12997097 -0.2045113
0.35194799 -0.10834923 -0.23255812
-0.05958092 -0.02810460 -0.09485215
-0.10779776 -0.11699500 0.34826492
-0.15020229 -0.00679514 0.114191
-0.12657623 -0.12352200 0.20907188
0.35194799 0.00648603 0.05751489
-0.29099301 -0.12574213 -0.00972135
-0.1577747 -0.07310613 -0.04232381
0.15288082 -0.11227166 0.10413645
0.13036883 -0.05040721 -0.04966792
0.03486119 0.00983555 -0.13950795
-0.06108865 0.21642737 -0.2286787
0.02547952 -0.11699500 0.1752295
0.17966789 -0.11276500 0.14412402
0.10078115 -0.02906939 -0.09518606
0.324148 -0.10868572 -0.21513338
0.02762916 -0.00341295 -0.12889178
0.15384304 -0.05050757 -0.04941961
0.14986159 0.19095717 -0.2205547
0.00124234 0.14761098 -0.20521354
-0.01959698 -0.05691088 -0.03302794
-0.14024184 -0.12352200 0.33724285
0.08176711 -0.12251500 0.2863213
0.16956422 0.03438576 -0.15821248
-0.10957889 0.01527120 -0.14740797
-0.02505549 0.20665699 -0.22350496
0.0478264 0.10608852 -0.18963116
-0.11778374 0.01601055 -0.14869842
-0.04872912 -0.04489976 -0.0652684
-0.00333288 0.22215050 -0.2293678
-0.02275467 -0.00140778 -0.12868667
-0.16258589 -0.09016800 0.06253335
-0.08086924 -0.04268294 -0.07031025
-0.0434221 -0.17687701 0.03398405
0.05918263 0.19545544 -0.21926638
-0.00710359 -0.05047075 -0.05180753
0.18875126 0.22746015 -0.23543939
-0.05873492 0.10977252 -0.19137682
-0.11525813 0.07049314 -0.17835127
-0.02959692 -0.07999608 -0.02812714
0.16924991 0.25587366 -0.24111483
0.12613135 0.06961550 -0.06026125
-0.09010942 0.13414395 -0.2001837
0.11083702 -0.02139258 -0.10972679
0.35194799 0.02764478 0.04088207
-0.06948822 0.16351977 -0.21563664
0.17360694 -0.12251500 0.15829353
0.21983566 -0.17687701 -0.0625149
0.11315137 -0.05066390 -0.05132964
0.30587515 0.06049649 -0.00225269
0.12568874 -0.05194418 -0.04888708
-0.13009091 -0.10595074 0.0480176
-0.01590555 0.08805269 -0.18365024
0.11158814 -0.01852656 -0.11298763
0.11353211 0.21984906 -0.22916862
-0.0730065 0.10167621 -0.18998098
0.02642685 0.07415243 -0.18182074
-0.26083743 0.01374857 0.11416535
0.19611982 -0.12352200 0.19265461
-0.14897394 0.15173701 -0.20690379
-0.02778909 0.04665730 0.08575071
0.02500554 -0.04686339 -0.05964455
-0.03341659 -0.05264210 -0.04716036
0.12945378 0.21162889 -0.2267647
-0.13758524 -0.12352200 0.33210527
-0.04128894 0.01646815 -0.14793659
0.00526591 0.01275249 -0.14356433
0.05720786 0.09579399 -0.18674136
0.00446407 0.08601617 -0.18478791
0.10036099 -0.12251500 0.22490048
0.324148 0.04238188 -0.05818142
0.08733886 0.15871580 -0.20889604
0.03584671 0.12471564 -0.19935348
-0.11576931 0.17545273 -0.21315722
-0.14503282 -0.03791176 -0.08052587
-0.00801148 0.01386013 -0.14583943
0.12758569 0.05892371 -0.17580371
-0.10802759 0.02006675 -0.15017112
0.0706187 -0.12251500 0.30075184
0.00377805 0.26638686 -0.24492314
0.15095106 0.25124363 -0.23901546
-0.1418089 0.18019915 -0.2163422
0.0604669 0.14321074 -0.20516436
0.05954618 0.17446256 -0.21355387
0.05025118 -0.05191816 -0.04649352
0.15762392 -0.04397923 -0.06678031
-0.02614398 -0.07095769 0.09935847
-0.04319223 0.02902054 -0.25014701
-0.12193419 0.13263847 -0.20024847
0.12490426 -0.12251500 0.31926739
-0.0994126 -0.12352200 0.18931347
-0.15538226 -0.00457866 -0.25014701
-0.181675 -0.09477447 -0.24816717
-0.11986206 -0.00820268 0.114191
-0.14486148 -0.12352200 0.14624881
-0.13839837 -0.17344917 0.09933938
0.08621326 0.06264719 -0.17844845
-0.04283936 0.00155246 -0.13278435
0.35194799 0.02628113 -0.17210359
-0.04707047 0.23244955 -0.2333471
0.0216217 0.05495696 0.03298824
-0.09984201 0.20963484 -0.22610345
-0.12454605 0.03402407 -0.15795542
-0.11483912 0.07580028 -0.09960508
0.05866315 -0.14163419 -0.25014701
-0.27443762 -0.17687701 -0.21771015
0.10260763 -0.05974172 -0.02260099
0.119287 -0.06395140 -0.00919202
0.05517562 -0.06758599 -0.05155115
0.2252629 0.05817217 0.01253378
-0.05343251 0.14564699 -0.20520668
-0.26130703 0.07589970 -0.10023846
0.01976246 0.12052035 -0.19622994
0.07443166 -0.12352200 0.25678408
-0.04910582 0.25140965 -0.23782152
-0.28895529 0.02575587 0.11177473
0.2467293 -0.17687701 -0.10855098
-0.08768126 0.14759303 -0.20661759
0.35194799 -0.13659932 0.00632847
0.00337142 0.12804730 -0.19937032
0.05604375 0.07571600 -0.2482215
-0.05105734 -0.17687701 -0.08114739
-0.03531924 0.01576402 -0.25014701
0.03689134 -0.17687701 -0.0984006
0.33650286 -0.13738653 -0.25014701
0.15093705 0.04377583 -0.1670209
-0.15703284 -0.04576246 0.114191
0.35194799 0.03672309 -0.00419496
0.07029807 -0.12251500 0.264277
0.06993407 0.12052417 -0.1944182
-0.29099301 0.02125695 0.0672426
-0.0069346 0.10319701 -0.1914523
-0.00700057 -0.04220297 -0.07226298
-0.01380165 0.19362446 -0.22220485
-0.04282975 0.24673406 -0.2432319
0.16053632 0.05536258 -0.17707979
0.0950504 -0.06056667 -0.02138329
0.15903876 0.22284619 -0.23262029
-0.12113157 -0.12352200 0.16364445
0.324148 -0.11625630 -0.07486344
0.12652931 -0.12352200 0.201312
0.17853848 -0.02572324 -0.09952522
0.03593006 -0.01659725 -0.1155422
-0.09615296 0.01736708 -0.1475996
0.10073905 0.15986958 -0.21173614
-0.165261 -0.04295641 -0.03918838
-0.03622218 0.17529441 -0.21580372
0.07862965 0.00298834 -0.13646277
0.05938644 0.11109704 -0.19374932
0.16557772 -0.05471815 -0.03924656
-0.07099278 -0.11699500 0.21891356
-0.10227674 0.04291311 -0.16705277
-0.11040534 -0.12352200 0.34077945
0.00412088 -0.08131894 -0.247045
-0.13758711 0.25389759 -0.24142655
0.324148 -0.11230559 -0.01020726
0.35194799 0.06477665 -0.12390534
0.1772582 0.09519499 -0.18924172
-0.00441677 0.24365640 -0.23738543
0.00932555 0.20009962 -0.22358645
0.1369688 -0.17687701 -0.22210231
-0.03361377 -0.12352200 0.34523759
0.00578827 0.25663824 -0.24169038
-0.03190836 0.09820688 -0.18947471
0.17970112 0.08740822 -0.24016788
0.06708406 0.25812993 -0.24327305
-0.07880642 0.06237659 -0.17940576
0.14921711 0.24445819 -0.23676532
-0.13958675 0.06637948 -0.17646313
-0.1525006 0.05148654 0.0550634
-0.0667826 0.23101940 -0.23533067
-0.0977678 -0.04456329 -0.06340189
0.09312327 -0.05683486 -0.03399544
0.16577936 -0.05439737 -0.25014701
0.13363153 0.00143724 -0.13388246
0.00961424 -0.03521195 -0.08435802
0.15464293 0.15136952 -0.20645992
0.35194799 0.04857529 -0.08889217
0.19841699 -0.07411203 0.03650129
