# .PCD v0.7 - Point Cloud Data file format
VERSION 0.7
FIELDS x y z
SIZE 4 4 4
TYPE F F F
COUNT 1 1 1
WIDTH 1417
HEIGHT 1
VIEWPOINT 0 1 0 0 0 0 0
POINTS 1417
DATA ascii
0.0226784 0.00035406 0.56482771
-0.00199513 0.03908200 -0.08366674
0.03214544 0.00182328 0.26285109
-0.06588199 -0.00230200 -0.01130887
0.032997 -0.03269400 -0.06339587
-0.20472135 -0.00230200 -0.03671003
0.02798994 -0.03269400 -0.05273201
-0.016925 0.02339399 -0.06930726
-0.016925 0.01090711 -0.03001004
0.02321846 0.00165708 0.49381273
-0.00433536 0.00511086 0.1694624
0.03278725 0.02175700 0.02014838
-0.06877271 -0.03531571 -0.04874759
0.02330392 0.00629937 0.3121953
0.01178963 -0.00506668 0.33680246
-0.00278922 0.01149370 0.4116524
-0.00439068 0.00469004 0.38249095
0.02052397 0.01117790 0.56625351
-0.016925 -0.02681133 0.02810124
0.02233702 -0.00046962 0.36142923
0.04160955 -0.01234520 0.043536
0.00779509 -0.01301878 0.57210713
-0.1928422 0.00157202 -0.056963
-0.016925 0.00640782 -0.09328644
0.00551042 0.00851423 0.53870548
0.044598 0.01013103 -0.29895688
-0.154597 0.00164132 -0.056963
0.00467365 0.00236399 0.2968045
-0.013849 0.02437430 -0.15720395
0.02223652 0.03406200 -0.04421366
0.044598 0.00460787 -0.1832459
0.00626988 -0.01238690 0.05486717
-0.19709312 -0.00947985 -0.056963
-0.016925 0.03642557 -0.10962419
-0.08000493 -0.04246776 -0.01143115
-0.00054954 -0.00687719 0.55813707
-0.21174701 -0.00401544 -0.05208303
-0.12996309 -0.05116000 -0.00082174
-0.03820843 0.02514957 -0.08770219
-0.08045176 -0.04275228 -0.03842974
0.02908311 0.01462376 0.0882187
-0.00299394 0.01099945 0.56606265
0.02386337 0.03908200 -0.2706213
-0.016925 0.03823928 -0.06647564
0.03543017 -0.03269400 -0.15551759
-0.00424699 0.00264898 0.49551716
0.02301075 0.02875219 0.028381
-0.18019278 -0.00370286 0.028381
-0.11306602 -0.00230200 -0.01411012
-0.04254014 -0.00230200 -0.0221163
0.01569403 -0.00513557 0.28728058
-0.20347056 -0.05116000 -0.01833317
0.019912 -0.00321517 0.41949535
-0.0830863 -0.02111416 0.028381
-0.11939549 -0.05116000 -0.03587707
-0.20807054 -0.00900663 0.028381
-0.013849 0.01667372 -0.20163262
0.01480026 0.01368520 0.29677468
-0.20808584 -0.00230200 0.00137392
0.02823511 0.01572842 0.26702139
0.03917391 0.03406200 -0.00154423
-0.00062163 0.01521579 0.07935357
-0.1643036 -0.02031646 0.028381
-0.12113631 -0.00230200 -0.02724012
0.00897622 -0.02502962 -0.36402199
0.01049775 0.01303827 0.08504336
0.01024288 0.01293275 0.19462692
0.03986608 0.03908200 -0.25736697
-0.00436711 0.00486934 0.29985358
0.01411418 -0.00534350 0.06665491
-0.00435379 0.00346131 0.22382559
0.02459141 -0.01072479 0.22715287
-0.08087063 -0.04301899 -0.04617995
0.02065238 -0.01283671 0.35436253
0.02973237 0.01377799 0.16532076
0.00640017 -0.00146689 0.44853345
-0.016925 -0.00513966 -0.0471765
-0.01185891 -0.03269400 -0.26657533
0.044598 -0.01980225 -0.1464244
0.01727024 -0.01381093 0.28653781
-0.00263788 0.00175950 -0.31275201
-0.02660465 -0.00846546 -0.00757709
0.01789803 -0.00444495 0.05338077
0.03198352 0.00059158 0.38349049
0.044598 -0.02296885 -0.00718612
-0.016925 -0.02871056 -0.23379137
0.044598 -0.00909774 -0.14487143
0.02072789 0.03908200 0.02901175
-0.13674037 -0.00230200 0.01873407
-0.016925 -0.02878621 -0.03392287
0.044598 -0.00355936 -0.08490163
-0.17002853 -0.05116000 0.02788118
0.02720307 -0.00864076 0.05957952
0.02804446 0.03406200 -0.03137821
-0.016925 -0.02154947 -0.02560006
-0.016925 0.02332807 0.03879761
0.03973026 0.03908200 0.028828
-0.016925 0.01338935 -0.28913372
-0.016925 0.03542875 -0.06232501
0.00596728 0.02069353 0.54973807
0.00055383 0.01674702 0.34964949
-0.013849 0.02604321 -0.28418513
0.02064238 0.02127285 0.35825105
-0.14937659 -0.05116000 -0.03584082
-0.059991 0.01870650 -0.07672083
-0.19067249 -0.05116000 -0.01921467
0.03351652 -0.03269400 0.0050581
0.02278595 0.00781846 0.41137293
-0.14605212 -0.02343156 0.028381
-0.13177046 -0.00230200 0.00410963
-0.00989737 -0.03269400 -0.0518452
0.01017177 -0.00447072 0.12766278
-0.00478879 0.03908200 -0.2483289
-0.18610553 -0.00230200 -0.03800115
0.0360586 0.03908200 0.00387481
-0.08876316 -0.04804451 0.01611305
0.02344901 0.00323550 0.58720648
-0.17413669 0.00406339 0.028381
-0.016925 0.00103753 -0.22291548
-0.06132529 -0.03057362 -0.00226208
0.00223558 0.03908200 -0.16607772
0.02852834 -0.00691394 0.5232807
-0.1685619 -0.03144370 0.028381
-0.04542476 -0.00230200 0.01139679
0.03049504 0.03406200 -0.0467511
0.044598 -0.00171027 -0.18524715
0.04153239 0.03908200 0.00829997
-0.2100736 -0.00230200 -0.02021519
0.02013879 0.03406200 0.01764565
-0.12260673 -0.02529097 -0.056963
0.01117592 -0.00488691 0.59265322
0.01866492 0.02205930 0.46257693
-0.00206745 0.01323627 0.277834
0.00190303 0.01799586 0.13625636
-0.14102486 -0.00723126 0.028381
0.00450675 0.00479938 0.27423133
0.03229238 -0.03269400 0.00189334
-0.016925 -0.01639853 -0.28016546
-0.016925 -0.00413611 -0.05596818
0.02769828 -0.00799551 0.40452112
-0.19647256 -0.04540219 -0.056963
-0.03635352 -0.01467299 0.01045921
-0.01417128 -0.02651955 -0.31275201
-0.016925 -0.02751736 -0.1610699
-0.016925 0.03754001 -0.21827753
-0.00436089 0.00491668 0.16371956
0.00550549 -0.01207022 0.35007851
-0.14528319 -0.00596333 -0.056963
-0.21033194 -0.04273572 -0.056963
0.01398971 -0.01423912 0.25399712
-0.16556464 -0.02409473 -0.056963
-0.06967603 -0.00905036 0.028381
0.02989724 0.02175700 -0.03899837
0.01767439 0.02781761 -0.054674
0.00572754 -0.00058996 0.27538102
0.04194523 0.03908200 -0.27004927
0.02945486 0.01413951 0.40726289
-0.0038843 0.00854196 0.17565045
0.044598 0.01516889 -0.1964921
-0.0048513 0.03469205 0.043536
0.02388392 -0.01126772 0.22658917
0.02243208 0.00867226 0.31958412
-0.016925 0.03127359 -0.18445721
0.01718117 0.02225483 0.27249235
-0.01577527 0.03908200 0.0099824
-0.12893306 -0.05116000 -0.03369881
-0.016925 0.01602019 0.01133375
0.00519087 0.00774324 0.39109351
0.02376057 0.01979437 0.46347639
-0.00331583 -0.00179003 0.18584623
0.00644203 0.00995347 0.52241986
-0.03847309 -0.01602262 -0.00247348
-0.10528429 -0.05116000 -0.02842577
-0.12397552 -0.00230200 -0.00504538
0.02065978 -0.01283364 0.23443254
0.00720904 0.00281025 -0.35582
-0.18638705 -0.00230200 -0.02613511
-0.024103 -0.02609978 -0.00409521
-0.20217114 -0.00230200 -0.01616298
0.02349862 0.00481939 0.16492688
0.044598 -0.02874689 -0.2368619
0.03729433 0.00450145 0.043536
0.02990071 -0.00512574 0.06983204
-0.00855869 0.03908200 -0.08835481
0.02164848 -0.03269400 -0.18361725
0.005137 -0.03269400 -0.19410737
0.048699 -0.02503361 -0.00208073
-0.00381115 -0.00059444 0.12032623
0.01264238 0.02249371 0.11342906
-0.016925 -0.01789051 -0.22441154
0.01054726 -0.03269400 0.01802565
-0.00899994 0.03908200 -0.07273822
0.00557512 0.00867032 0.08018758
0.01652357 -0.00995557 -0.31275201
-0.02840665 -0.00230200 -0.05597228
0.00467922 -0.01169375 0.12005975
-0.21174701 -0.00682562 -0.04347878
-0.17999691 -0.00230200 0.02603762
0.02115064 0.01049495 0.4628542
0.044598 -0.02696232 0.02835843
0.01762614 0.03908200 0.00945395
0.02582638 -0.00977707 0.46471865
0.02371345 0.01983053 0.23116623
0.00680898 0.00879647 -0.35208535
0.03924779 -0.03269400 -0.16186806
-0.00504073 0.03908200 -0.16961319
0.044598 0.00228713 0.03814239
0.01689113 -0.00486209 0.50165999
-0.20344415 -0.05116000 -0.00212299
-0.05755226 0.00360386 0.028381
0.00697091 0.02110933 0.42767069
-0.21174701 -0.00177117 0.01862988
-0.013849 0.01699320 -0.19834305
0.00448209 0.00461195 0.17617684
-0.00998492 0.03406200 0.01750414
0.02195635 0.00944452 0.23339546
0.02342943 0.00534532 0.27339103
-0.12389332 -0.04769382 0.028381
0.03238314 0.00480066 0.10465521
0.0159626 -0.00510023 0.07524073
-0.01116 -0.03269400 -0.3000638
-0.21174701 -0.02336699 -0.0529459
-0.12829031 -0.05116000 -0.02507561
-0.09483179 -0.05116000 -0.0354213
0.044598 -0.01121401 -0.26178003
-0.17781063 -0.05116000 -0.00897326
0.044598 0.00006115 0.02518892
0.00055347 0.03406200 0.00763192
0.0146655 0.01370294 0.35969424
-0.17176668 -0.05116000 -0.00987291
-0.00527932 0.03908200 -0.25326803
-0.1945122 -0.00230200 -0.04885312
0.044598 -0.00422377 -0.23320262
-0.20995429 -0.05116000 -0.00599016
0.00103214 0.03406200 0.01893551
-0.01790366 0.01446029 -0.08184021
-0.0064643 0.03406200 -0.04574781
0.02952789 -0.00561152 0.04952944
-0.07080773 -0.00230200 0.01997729
-0.03184843 -0.00230200 0.01974217
-0.013849 0.02755534 -0.25727125
0.03183606 0.00896207 0.27551992
-0.15207304 -0.00230200 0.01500805
0.00755539 -0.00280051 0.54597559
-0.07645705 -0.04020867 -0.02505025
0.044598 -0.00639393 -0.04782887
0.00562791 -0.00036570 0.11244094
0.01078652 0.02224934 0.44657015
0.02065733 -0.01283466 0.06488756
-0.19952522 0.00209984 -0.056963
-0.06164513 -0.00230200 -0.00265852
0.044598 0.01723716 -0.19357346
0.00708905 0.02115827 0.44120635
0.044598 -0.02730883 -0.1111096
0.03237142 -0.03269400 -0.12981697
0.01403383 0.02266908 0.30758911
0.0207448 -0.01279842 0.41798035
-0.00348153 -0.00139007 0.23381913
0.02809671 -0.00747635 0.05167302
-0.016925 -0.03068550 -0.2071981
-0.016925 -0.00469842 -0.1566931
0.01782671 0.03908200 -0.02450231
-0.00398199 0.00779882 0.48543659
-0.013849 0.02341169 -0.17056826
-0.1460181 -0.00230200 0.01134363
-0.00402465 0.00095766 0.38136449
0.03164618 -0.00100951 0.31596425
0.03061021 0.01194279 0.28098101
0.01064028 -0.00466490 0.46363201
-0.01662689 0.03406200 -0.05453758
-0.18166308 -0.00835213 0.028381
0.00852377 0.01197593 0.15473638
0.01817121 0.02212438 0.31100907
-0.01066378 -0.03269400 -0.12348248
-0.013849 0.02504773 -0.22211154
-0.21174701 -0.01960935 -0.0157076
-0.016925 -0.00402052 -0.23242477
-0.00261364 -0.00348496 0.42277831
-0.00443852 0.00410585 0.40959325
0.04114376 -0.00203364 0.043536
-0.13568806 -0.01984848 0.028381
-0.21174701 0.00486126 -0.00657362
-0.15899261 -0.00230200 0.02509075
0.02309668 0.00706875 0.38636417
0.0132296 0.02918220 -0.054674
0.01462738 0.01370796 0.56032258
-0.01269231 -0.03269400 -0.15751179
0.03200147 0.00770390 0.5882286
0.03217519 0.00638244 0.14296206
0.02395657 -0.01121196 0.33783438
0.02638326 0.01778173 0.31146945
0.00728004 -0.00267079 -0.32749951
0.00489875 0.00139357 0.24684269
0.02878058 0.02175700 -0.04672887
0.02808151 -0.00749616 0.23919351
-0.00178745 -0.00526419 0.09439999
0.03221524 -0.03269400 -0.26215049
-0.016925 0.01757847 -0.01259758
-0.00421672 0.00601328 0.36435711
0.044598 0.03326121 -0.2086182
0.02342166 0.02005446 0.57211506
0.03234047 0.00512522 0.29036866
0.044598 -0.00810750 -0.2014
0.044598 -0.00296969 -0.08126142
0.03482295 -0.00449138 0.043536
0.01156412 -0.03269400 -0.30939582
0.03065637 0.01183135 0.44224648
0.044598 0.02886414 0.04329968
-0.0036141 -0.00107007 0.50705241
0.02332399 0.00228519 0.48281952
-0.016925 0.00866779 -0.08027139
0.02055943 0.03908200 -0.01653479
0.01161404 -0.03269400 -0.16117698
0.02509904 -0.01033523 0.07455647
0.0055513 0.00861285 0.39707787
0.00594061 0.00929974 0.21485524
-0.00370323 0.02175700 -0.01533643
0.044598 -0.02229962 -0.0111148
0.00051439 0.03908200 -0.18221296
0.02588184 0.02175700 0.02371661
0.02668297 -0.03269400 -0.0535466
0.0047776 0.02020066 0.20644782
-0.21174701 -0.05054853 0.00674667
0.0125314 0.01359627 0.3442331
0.01141498 0.02233210 0.21514971
-0.14188808 -0.01102783 -0.056963
0.02164066 -0.01242728 0.09160502
-0.12155401 -0.05116000 -0.03513676
-0.11336819 -0.00230200 -0.02111664
0.03431745 0.03908200 -0.07873419
-0.01838319 -0.00230200 -0.01190317
0.02137764 0.01019901 0.55310795
0.03942095 0.03908200 -0.13052343
0.01433885 0.01374593 0.26181247
0.02663868 0.01758571 0.43571771
-0.21174701 -0.02392702 -0.02153417
0.01584087 -0.01399913 0.43287892
0.02153857 0.00998920 0.08527403
-0.013849 0.02232145 -0.23747906
0.02998482 0.01344914 0.48061091
0.044598 0.01940668 0.02083581
-0.05457857 0.01906298 -0.07481812
0.00472334 0.02015960 0.36002813
-0.17831446 -0.01122677 -0.056963
0.01027716 0.03908200 -0.11654362
0.01267729 -0.01406631 0.30197669
-0.06146112 -0.00230200 0.0262681
0.03975112 -0.02425056 -0.31275201
-0.01001454 0.02834012 0.043536
0.0034797 -0.01077348 0.531086
0.00469466 0.00381585 -0.34374231
0.03215824 0.00192064 0.22036585
0.01307574 0.02255077 0.0543437
-0.04556653 0.01530983 -0.07803992
-0.00619296 -0.03269400 -0.3122581
0.01984768 -0.01317009 0.30440659
-0.024103 -0.01392061 -0.01517536
0.00772528 0.02142185 0.17548906
0.044598 -0.01798583 -0.25230506
-0.11241519 -0.05116000 0.02665344
-0.12835867 -0.00230200 -0.05394925
0.044598 0.03649686 -0.18838025
0.00657802 -0.00169876 0.52857767
0.02719782 -0.03269400 -0.01830619
0.01289107 0.01364359 0.51855326
0.01770062 -0.01375426 0.36952133
0.01488621 0.01367389 0.42643784
-0.00440865 0.00455336 0.06511859
-0.21174701 -0.02893863 -0.01082308
-0.00378118 0.00909878 0.34806773
0.044598 0.03836203 0.01921673
-0.00428119 0.00290913 0.3804652
0.03778053 0.03908200 0.04157201
-0.18393185 -0.00230200 -0.01782315
0.01820618 -0.00431728 0.22253838
-0.12664298 -0.04499973 0.028381
0.00411838 0.01969548 0.41965929
-0.06881896 -0.03534517 0.00319047
-0.21174701 -0.03127489 -0.00114017
0.01268647 -0.00518467 0.34788488
-0.21174701 -0.04747353 -0.00540894
0.02656498 -0.03269400 -0.03799034
0.03233122 0.00519558 0.45937526
-0.09916767 -0.00230200 -0.00315545
-0.11163258 -0.00230200 -0.05560644
0.01517151 -0.00520434 0.39850242
0.04681522 -0.01039999 -0.01411115
-0.016925 0.03194495 -0.30381889
0.02500134 0.03908200 -0.22000405
-0.00560998 -0.03269400 -0.2377511
0.00162725 0.03406200 0.02608485
0.03056222 -0.01027499 -0.31275201
0.044598 0.00017109 -0.28893125
0.01160518 0.01347442 0.34764136
0.02893494 0.02636774 -0.31275201
0.00275349 -0.01021633 0.52685637
-0.00421035 0.00237021 0.14400796
0.0149323 -0.00705565 0.59723997
-0.00101825 0.01469914 0.17835582
0.01679659 -0.03269400 -0.18120312
0.02083745 0.03908200 -0.07630659
-0.01449738 0.01537400 -0.28230286
-0.16346856 -0.00230200 -0.01476572
0.02285864 0.02035468 0.07735756
0.044598 -0.01332705 -0.02607044
0.02758561 -0.03269400 -0.23504749
-0.016925 -0.01496495 -0.09846259
0.02000748 0.01157432 0.0503343
0.02989275 0.03406200 -0.02200168
-0.17366469 -0.04928636 0.028381
0.0374557 -0.03269400 -0.14325415
0.044598 0.01362802 -0.07990882
-0.10704671 -0.00230200 0.01691923
0.02893811 0.03406200 -0.05402817
0.02359431 -0.01148996 0.53915235
-0.19582748 -0.00230200 0.00178829
0.02154837 0.00997641 0.22454922
0.044598 0.00190599 -0.06679974
0.00982638 0.03406200 -0.01168727
-0.016925 -0.00578944 -0.04259606
-0.10163257 -0.00230200 -0.05153777
0.044598 -0.00210326 -0.28479296
-0.016925 -0.03121127 0.03889609
-0.140337 -0.00230200 0.02350086
0.02370582 0.01983639 0.05552271
0.0133069 0.01369829 0.31238541
-0.19498615 -0.01059245 0.028381
-0.0030925 0.01076150 0.06857359
-0.07639878 -0.04017157 -0.01503183
0.044598 0.02428193 -0.08251265
0.00410283 -0.01125154 0.13436958
-0.18059416 -0.05116000 0.00102612
-0.016925 -0.00778210 -0.10990642
0.03201376 0.03908200 -0.1918026
-0.016925 -0.02087489 -0.27833023
0.020913 -0.02514981 -0.362956
-0.02293308 -0.00230200 -0.03926692
-0.19245651 -0.00230200 -0.04607793
-0.09071708 -0.00230200 -0.04627192
-0.00252901 0.01212193 0.1766756
0.00871613 -0.01340035 0.4188261
-0.016925 -0.02007073 -0.03308014
0.01061704 0.02222703 0.15213741
-0.01342193 0.03182130 -0.054674
-0.21174701 -0.02608141 -0.03226279
0.044598 0.01554741 -0.21617168
0.044598 -0.01491714 -0.20872216
0.02838365 0.03908200 -0.06480585
-0.09208035 0.00229065 0.028381
0.044598 -0.01455237 -0.14169976
0.01162962 0.00427400 -0.36143176
0.02385708 0.01972032 0.44287927
0.044598 0.00722967 -0.2842876
-0.00752767 0.03406200 -0.04187287
-0.13775042 -0.04336294 0.028381
0.02099066 0.01070353 0.16752682
-0.01598122 -0.03269400 -0.27955459
-0.01107623 0.00845331 0.043536
-0.05482081 -0.02643193 -0.04867741
-0.03092813 -0.01121841 0.01761349
-0.016925 -0.00433716 -0.03969539
0.02537683 0.03406200 -0.04745867
0.02107128 -0.00216642 0.56006158
0.01859362 -0.00281217 -0.36402199
-0.02360385 -0.00231635 0.028381
0.0245456 0.01919194 0.37059407
-0.13053531 -0.00230200 -0.04048931
-0.19835561 -0.02627417 0.028381
-0.016925 0.03526037 -0.1525832
0.044598 -0.00558803 -0.06564662
-0.00367954 -0.00091210 0.31414874
0.03965039 -0.03269400 -0.00345281
0.044598 0.02752101 -0.19468884
0.01130101 0.01337085 0.52966699
-0.12358626 -0.05116000 -0.0556331
-0.09364765 -0.02380311 0.028381
-0.16979071 -0.05116000 0.00671995
-0.19120076 -0.00230200 0.01944958
0.004635 -0.01420307 -0.35748463
0.02178642 -0.00123405 0.15935717
-0.00388352 0.03908200 -0.30047554
-0.07158523 -0.03710657 0.02788982
-0.016925 0.01154234 -0.19341398
-0.20473212 -0.00230200 -0.02610741
0.0184468 -0.01365601 0.38590113
-0.13061572 -0.00230200 -0.01269394
-0.016925 0.03462958 -0.03750969
0.00704728 0.03908200 0.04271773
0.00399444 -0.01116839 0.46423588
0.01963367 0.02169075 0.42996691
-0.17457815 -0.05116000 0.01232888
0.02164539 0.00984993 0.43828912
0.01515548 0.02175700 -0.04953595
0.03205318 0.00731057 0.55042194
-0.013849 0.02082847 -0.28902146
0.03066553 -0.03269400 -0.30508774
-0.12372534 -0.05116000 -0.05488781
0.03221906 0.00238326 0.20013161
-0.00025658 0.03908200 -0.18185417
0.00603471 0.02072147 0.311811
-0.13866444 -0.05116000 -0.05019653
0.044598 0.03583322 -0.16049158
-0.04755391 -0.00230200 -0.05106264
-0.00288404 0.02175700 -0.00192198
0.03004241 -0.00488067 0.0606203
-0.016925 -0.01219444 0.04115502
0.00460793 0.00556850 0.16500844
-0.04708999 0.01799446 -0.07526302
-0.00635943 -0.03269400 -0.22146301
0.044598 0.01637548 -0.21033469
0.00487072 -0.00154005 0.59723997
-0.2033894 -0.05116000 0.00485997
0.03569837 -0.02100117 -0.31275201
-0.21174701 -0.01691650 -0.03117033
0.02103012 -0.01268022 0.14936727
-0.07460055 -0.00230200 0.01723062
0.00792401 0.01151560 0.56232032
-0.19606815 -0.00230200 -0.03698358
0.00585815 0.00919225 0.33724242
-0.21174701 -0.00677227 0.00659568
0.01357952 -0.03269400 -0.26537927
0.02991941 0.01353435 0.16838605
0.044598 0.03785061 -0.22647514
-0.00245219 -0.00387465 0.10132943
0.03818183 -0.03269400 -0.07657833
0.04164519 0.03908200 -0.25931996
0.02180166 -0.00121419 0.53066955
-0.00034424 -0.00714469 0.53568275
-0.013849 0.02279034 -0.17036396
0.03189396 0.03908200 -0.23396419
0.01372763 -0.01420461 0.31254134
0.00241625 0.03908200 0.031387
-0.1629336 -0.00699062 0.028381
0.02631572 0.01783355 0.5716879
-0.07708806 -0.00230200 0.02206803
0.02740609 0.01680835 0.54702205
-0.02083681 -0.01508363 -0.01677203
-0.00270125 -0.00327349 0.35072846
0.01559963 0.01358000 0.54858436
0.0052058 0.00777925 0.54795434
0.01457452 -0.01416588 0.11349032
-0.016925 0.00927726 -0.0131152
0.044598 -0.01075910 -0.05527995
0.044598 -0.00668234 -0.06130876
0.01017249 0.02216849 0.17145947
0.03065922 -0.00339183 0.39310399
0.00145943 -0.00922353 0.12696093
0.0308952 0.02175700 0.00084804
0.034644 0.01718187 0.043536
0.044598 -0.01206244 -0.26985012
-0.06932859 -0.03566967 -0.03310179
0.02612702 -0.00954636 0.39048837
0.00679369 -0.00197995 0.40614917
0.01630559 0.01200844 -0.31275201
0.00085192 0.03406200 0.01026986
0.02635615 -0.02571484 -0.31275201
0.0312282 0.03406200 -0.04530508
0.01387684 -0.00534127 0.51600504
1.241e-05 0.03908200 -0.17862922
0.03199588 0.00068562 0.30329676
0.00011954 -0.00774901 0.07796157
-0.08011636 -0.01394997 -0.056963
0.0300518 0.01329098 0.15215028
0.044598 -0.02261464 0.00573812
-0.00083038 -0.00651126 0.52871461
0.044598 0.00124304 -0.07304074
0.01476941 -0.00525726 0.29163557
0.044598 -0.02547417 -0.08199554
-0.00417118 0.00207232 0.14552619
0.0053458 -0.03269400 -0.06765109
0.02354201 0.00394247 0.33438742
0.02782129 -0.03269400 -0.14821057
-0.01457686 -0.03269400 -0.08515691
0.00705276 0.01074971 0.05167038
-0.016925 0.03807453 -0.17063464
0.03231293 0.00309730 0.1465099
-0.21174701 -0.03894601 -0.03315896
-0.08548086 -0.00230200 -0.03402892
0.044598 -0.01134379 -0.30678118
0.044598 -0.01695527 -0.09795705
0.01647412 0.00999310 -0.35504936
0.0206782 -0.03269400 -0.29112879
0.03093799 -0.03269400 0.00607878
0.01736591 0.03520296 0.043536
-0.06150827 -0.03069013 -0.01277742
-0.016925 0.03187124 -0.23998151
-0.07610482 -0.03998439 0.02191365
0.044598 -0.00990311 -0.29560416
0.02588829 -0.00972956 0.27173257
0.00930512 0.02205429 0.58556118
0.01673726 0.01335795 0.4147768
-0.016925 -0.00975349 -0.2097162
0.01933207 -0.00365999 0.19211288
0.02036318 -0.03269400 -0.23642047
0.02952659 -0.03269400 -0.17111841
0.01937142 0.01206251 0.46696573
-0.07416577 -0.03874972 -0.02908947
-0.12572816 -0.05116000 -0.0500808
-0.16994306 -0.00230200 -0.05583371
-0.13606132 -0.05116000 0.0036389
0.04319334 0.03908200 -0.05698639
0.044598 -0.00675852 -0.14239084
-0.016925 0.00059648 -0.2022075
0.03565208 0.03908200 -0.26607327
0.00870649 0.02182836 0.2950697
0.00381242 0.01946074 0.19218855
0.02888034 -0.00645528 0.12030275
-0.00146799 -0.00568045 0.48899775
0.00549896 0.03908200 0.03514506
-0.00434006 -0.02765934 -0.31275201
-0.02517643 0.01944975 -0.07465791
0.00518229 0.03908200 -0.01612659
0.01622004 -0.01085352 0.59723997
0.01168523 0.03406200 -0.03878821
-0.21174701 -0.01437690 -0.03099175
0.01350811 -0.01417570 0.3104232
0.02963227 0.01390839 0.13314737
0.01836737 0.02209852 0.16992899
0.02460816 -0.03269400 0.0017231
-0.016925 -0.02907286 -0.15655913
-0.17008079 -0.05116000 -0.03963415
0.044598 -0.01999373 -0.22364499
0.04027164 0.03908200 -0.01159118
0.00874228 0.02184319 0.3746379
0.044598 -0.00278158 -0.02542473
0.044598 0.00102879 -0.02903112
0.01680034 0.01333184 0.32118171
-0.14672033 -0.00692226 -0.056963
-0.016925 -0.01793369 -0.10972517
-0.14372112 -0.05116000 -0.03702208
0.00059704 0.01680331 0.12365703
0.02645913 0.01772351 0.05625846
0.00814476 0.02159564 0.17084239
-0.01043284 -0.03269400 -0.02093645
0.013886 0.02265746 0.12794829
-0.01515126 -0.03269400 -0.21548253
0.03407652 0.03908200 -0.19487769
0.0321133 0.00685326 0.25528206
0.03141174 -0.00157541 0.53031144
0.04169119 0.02175700 -0.03098513
0.0214381 -0.01251119 0.0634961
-0.00248086 0.01223819 0.55278358
-0.016925 -0.01781465 -0.05139328
-0.01383524 0.01802779 -0.31275201
0.01597133 0.03908200 -0.30288189
-0.21174701 -0.04863161 -0.05441084
-0.0535988 -0.02565382 0.01296379
0.044598 0.01250072 -0.12062677
-0.00399934 0.00766688 0.41535725
-0.016925 0.01653277 -0.07182391
-0.00288627 -0.00282689 0.29298129
-0.016925 -0.00116473 0.02848602
-0.00415972 0.00644687 0.06857884
0.00559704 0.02054015 0.24823475
0.02336844 0.00262310 0.24657356
-0.02647192 -0.00230200 -0.01561455
0.00165662 0.03908200 -0.31041246
0.044598 0.00879833 -0.28664725
0.044598 0.03724999 -0.04547912
0.02345688 0.00329535 0.35968801
0.04277641 -0.03269400 -0.26345988
0.01661983 -0.03269400 -0.08301883
-0.016925 -0.00344353 -0.09727773
0.02268401 0.00806442 0.24738615
-0.0556502 -0.00657760 -0.056963
-0.10286606 -0.00412288 0.028381
-0.016925 -0.02832657 -0.05977319
0.03120162 -0.00208258 0.37211284
-0.03459213 0.00445617 -0.056963
-0.20076015 -0.00230200 -0.02650993
0.00571092 0.02058733 0.13765171
0.01844279 0.03406200 -0.05380128
-0.00388733 0.00851885 0.38756207
0.01078022 -0.00472290 0.30176313
0.02067075 0.02126110 0.27440701
0.0322986 0.00544369 0.49420292
0.02290197 -0.01190473 0.45116167
-0.10073033 -0.05116000 -0.02884009
0.0055726 -0.00023225 0.54884402
0.01285392 -0.01408957 0.22948883
0.044598 0.00996072 -0.27266738
-0.08567322 -0.04607701 0.01345508
-0.00691467 -0.00839805 -0.31275201
0.03215916 0.00650436 0.46764773
0.044598 -0.00531105 0.00775661
0.02155143 -0.01246424 0.15879792
-0.154417 -0.04367024 -0.056963
0.01388556 -0.00534242 0.05677109
-0.15516665 -0.00230200 -0.0525553
0.044598 0.00952669 -0.15672116
0.00888093 -0.01346863 0.5101274
0.00016944 0.01624629 0.49891472
-0.09488394 -0.05116000 -0.00829141
0.02241295 0.03908200 -0.22414835
-0.0198115 -0.00413996 -0.0023222
0.02231934 -0.00051229 0.37468849
0.01898991 0.01235533 0.23039203
-0.00096375 0.01477013 0.41151026
0.02926838 -0.03269400 -0.10650641
0.01240487 0.03908200 0.04260876
0.01184908 0.01350650 0.39448268
-0.016925 0.00423324 -0.11604482
0.00744143 0.03406200 -0.02968005
0.02970597 -0.00537949 0.30698771
0.00795489 -0.00310693 0.07430952
0.044598 0.02149307 -0.10589996
0.00335465 -0.01067754 0.57099497
0.03006181 -0.00483384 0.36407387
0.02125057 0.01036468 0.15869453
0.0154717 -0.01404774 0.16002928
0.01887876 0.02175700 0.01943389
0.01095913 0.01322930 0.14132216
0.0316965 0.00932013 0.06360995
0.00466237 -0.01168082 0.25904986
0.01096444 0.02227277 0.50623903
-0.13887176 -0.00182111 0.028381
0.01043807 0.02220346 0.05381479
-0.01588677 0.02852300 -0.19720365
0.044598 0.03299732 -0.18546997
-0.11571858 -0.05116000 -0.02572216
-0.01169543 -0.03269400 -0.04899048
0.044598 -0.01042006 -0.05421512
-0.1645495 0.00348438 0.028381
-0.13575256 -0.05116000 -0.03514486
0.01991614 0.01164443 0.3018333
-0.03726846 -0.01525557 -0.03280157
-0.17518522 -0.00416332 -0.056963
0.02207371 0.02067987 0.070816
0.02156438 0.00995554 0.34528566
-0.00395194 0.00802740 0.58004688
0.01156319 0.03126862 0.028381
0.01623776 0.01349601 0.36637142
0.02908836 -0.03269400 -0.27526543
0.0176168 -0.00456145 0.37755947
-0.16921084 -0.00230200 0.00502905
-0.00950762 -0.03269400 -0.17261142
0.01029158 0.02218418 0.33151176
0.02923567 0.03908200 -0.17645818
0.02260962 0.02045785 0.13624424
0.01877717 0.02204450 0.5395608
0.0439286 0.03908200 -0.00766089
0.0054699 -0.01205548 0.28625234
-0.21080107 0.00431020 0.028381
0.0097064 -0.01367512 0.22592445
-0.0014009 -0.00576788 0.59092239
-0.016925 -0.02202589 -0.04587749
-0.00396647 0.00791690 0.32147938
0.00681186 0.01043563 0.33683126
-0.00356688 -0.00118405 0.52489483
0.044598 0.00537126 -0.18672782
-0.01372171 0.01103100 0.043536
-0.17364943 -0.04801556 -0.056963
-0.00408288 0.00703142 0.26891585
0.03597893 -0.03269400 -0.0839032
0.02293279 0.00746416 0.21443195
-0.016925 0.03286812 -0.18561364
-0.01544584 0.03406200 0.01325688
0.04296542 -0.03269400 -0.30798634
-0.00053765 0.03908200 -0.15578498
0.00882227 0.01220503 0.12300977
0.00312171 -0.01049883 0.10781822
-0.1389117 -0.05116000 -0.02458455
-0.00374541 -0.00075310 0.2498718
0.00311984 0.01892940 0.34770901
-0.13074754 -0.00230200 0.01599812
-0.016925 -0.01232646 -0.08646308
-0.0011849 -0.00604931 0.36459036
0.01569387 -0.01401849 0.34421739
0.01361305 -0.01418952 0.31427177
-0.1630097 -0.03201841 0.028381
0.00131484 0.01754460 0.13972319
0.03169171 -0.03269400 -0.25150056
0.00030901 -0.00799588 0.2018717
-0.19005062 -0.05116000 -0.00557666
-0.00157695 0.01397134 0.12505934
0.03113529 -0.00224269 0.23948505
0.0078486 0.02147294 0.12192202
-0.013849 0.02082198 -0.1548222
0.02107846 -0.01266019 0.48860944
0.01351022 -0.01417598 0.29252659
0.03234981 0.00505417 0.40588931
0.02450012 0.01922685 0.34274927
0.02841576 -0.00706062 0.04978149
-0.01775428 -0.00230200 0.00173274
0.00588593 0.00922846 0.28164408
0.03401717 0.02175700 -0.03417711
0.03130144 0.01027394 0.14440615
0.01634184 0.03908200 -0.19904161
0.01126099 -0.01387982 0.31310302
0.01661646 -0.03269400 -0.1358313
-0.21174701 -0.00377566 -0.03623823
-0.20498006 -0.03023087 -0.056963
-0.01343157 0.03908200 -0.07265727
-0.18867281 -0.05116000 -0.03010328
0.00847038 -0.01329854 0.41656859
0.01344248 -0.03269400 -0.03402151
0.01438859 -0.03269400 -0.07484843
-0.08583353 -0.00230200 -0.01900622
0.01496784 0.01366315 0.56803899
0.03028541 0.01272696 0.11894718
-0.20420232 -0.05116000 -0.05004623
0.01607611 -0.01396816 0.05250696
0.02091127 0.03908200 -0.07836326
0.01769284 0.03908200 -0.09988911
-0.00411413 0.00679367 0.21207968
-0.01387022 -0.03269400 -0.2335958
-0.13494273 -0.05116000 -0.04373764
0.03743095 0.02175700 -0.04806229
0.010514 0.02221346 0.08943276
-0.00141617 0.03908200 -0.31163366
0.02405772 -0.03269400 -0.2117662
0.01901255 -0.03269400 -0.24697708
-0.016925 0.00168506 -0.020924
0.00472811 0.02016326 0.28461325
-0.12020628 0.00282156 -0.056963
0.00121938 0.03908200 -0.05988278
-0.00314428 0.01063648 0.35204739
-0.17079067 0.00269328 -0.056963
0.02041863 0.01125875 0.07586673
0.0291711 -0.03269400 -0.01657248
0.02814335 -0.00741558 0.59666268
0.00991525 -0.01370262 0.48112674
0.02536098 0.01856622 0.40251136
0.01469424 0.03261373 0.028381
0.00790158 0.02149489 0.5835474
-0.17277743 -0.00230200 0.00910773
-0.0719683 -0.00230200 -0.01786649
0.02733464 0.01690142 0.52827682
0.0317968 0.00907797 0.12096748
-0.0024995 0.01219317 0.32813126
-0.1541642 -0.00230200 -0.0281087
0.02344902 0.02003346 0.11362068
0.044598 0.00833911 -0.13675503
0.03909381 0.02175700 0.02779784
0.03569524 0.03908200 -0.02819718
-0.00420005 0.00229190 0.11905418
0.02202637 -0.00092123 0.25540661
0.044598 0.03098370 -0.10510532
0.02366216 -0.03048331 -0.31275201
4.899e-05 -0.00765707 0.27707315
0.00349283 -0.01078355 0.53721178
0.00577237 -0.00064840 0.56244103
0.04046859 0.03908200 -0.25087843
0.00626545 0.00972325 0.41332697
-0.00616442 -0.00206025 0.043536
0.01085914 -0.00475561 0.47759713
0.04249661 -0.03269400 -0.20774878
-0.016925 -0.00322342 -0.30873099
-0.016925 0.03696748 -0.1882348
-0.14779367 -0.05116000 0.02110951
-0.016925 0.00523606 -0.12972791
0.044598 0.02870875 -0.21693567
0.01667625 0.01338320 0.38209946
0.02917661 -0.00606924 0.15933222
0.01646212 -0.01391733 0.08113177
-0.14899663 -0.05116000 -0.02481361
-0.01140171 -0.03269400 -0.06573958
-0.00085282 -0.03269400 -0.3110654
-0.13757225 -0.05116000 -0.01378434
-0.00119926 0.03908200 -0.26276984
-0.016925 -0.01888916 -0.00198908
0.01500021 0.03908200 -0.11468337
0.044598 -0.00737545 0.04234631
-0.15235089 -0.04992082 -0.056963
-0.1255779 -0.00230200 -0.00593043
0.001067 0.01735446 0.2737447
0.02066422 -0.01283180 0.4465601
-0.059991 0.01847963 -0.08316091
0.02213667 -0.01222178 0.12596181
0.03001208 0.01338686 0.52017338
-0.016925 -0.01104413 -0.03029393
-0.12097952 -0.03758854 -0.056963
-0.17865448 -0.05116000 -0.04413947
-0.01236871 0.03406200 -0.02787042
-0.16045119 -0.00230200 0.00873891
0.0272874 -0.03269400 -0.20085549
0.0308381 0.01139258 0.44228611
0.01571697 0.02244745 0.05124496
0.01038814 -0.00456040 0.52921228
0.01239977 -0.00514695 0.35258855
-0.21174701 -0.00984172 -0.02654351
-0.01689246 -0.03269400 5.141e-05
-0.06585585 -0.03345842 -0.0191175
-0.08887969 -0.04811871 -0.03747535
0.04325248 -0.03269400 -0.09414985
0.0143294 0.03406200 -0.03385355
-0.19151913 -0.02762863 0.028381
-0.18684158 -0.02234748 -0.056963
-0.00195774 -0.00504230 0.48906032
0.01956747 -0.00347943 0.39724809
-0.00399737 -0.03269400 0.04122971
-0.19350899 -0.01083232 0.028381
0.01701584 0.03908200 -0.2386314
0.0432406 -0.02169562 0.043536
-0.016925 0.03221846 0.03210998
0.03829964 0.03908200 -0.23221905
0.02383217 0.03908200 -0.20699931
0.00459658 0.02175700 0.01118953
0.03035162 -0.00413431 0.47852889
0.02719985 0.01707700 0.51313893
0.00994518 0.03908200 -0.31228438
-0.0011284 0.01455564 0.05287166
-0.00209055 0.01318052 0.50966742
0.0217797 -0.00124282 0.38614996
0.03101705 0.01096054 0.45457894
-0.00111889 0.01456803 0.19967202
0.00445634 0.00441624 0.07827027
-0.00391797 0.00014616 0.53451513
-0.02592686 0.01455894 -0.08035962
-0.016925 -0.02967668 -0.1437964
0.044598 0.02345199 -0.0788528
-0.15519116 -0.02096452 -0.056963
0.01104437 0.01326459 0.30993718
0.01631247 -0.03269400 -0.11698392
0.044598 -0.02339527 -0.10568587
0.0405693 0.03406200 -0.01312292
0.044598 -0.01534880 -0.06519767
-0.10077261 -0.01925112 -0.056963
0.0084409 0.01191232 0.25783196
0.02859541 0.03908200 -0.13586701
0.00672334 -0.00188823 0.31588691
0.02746838 -0.03269400 -0.1087294
0.03206403 0.00120400 0.52852159
0.01449586 0.03908200 -0.29072892
0.00650735 0.00841254 -0.32629924
-0.17830269 -0.04122217 0.028381
0.044598 0.02699235 -0.06564122
-0.11300864 0.00133212 -0.056963
0.03188246 0.00860913 0.15100474
0.01343222 -0.01416571 0.09211575
-0.04575814 -0.00230200 0.01623909
0.01770427 -0.00452522 0.41511594
-0.016925 0.03701652 0.03681265
-0.016925 -0.00402450 -0.19749578
-0.00438957 0.00373349 0.30075251
-0.21174701 -0.00034158 -0.01421351
0.01368937 0.03807100 -0.31275201
-0.09648809 -0.05116000 -0.05095288
-0.15818061 -0.02627404 0.028381
-0.09969821 -0.01322492 -0.056963
-0.15974727 -0.04787449 -0.056963
0.00237405 0.02883696 -0.054674
-0.20760506 -0.03115159 0.028381
-0.04127702 -0.01780800 0.02422103
0.02209935 -0.01223724 0.119465
0.03232379 0.00525207 0.23325333
-0.00356192 0.00962816 0.1353013
0.03128191 0.03908200 0.00624305
0.02201567 -0.00093517 0.15545547
0.04042159 0.03908200 -0.14080836
0.00508948 0.02032987 0.38305548
0.00990154 -0.01370082 0.47808519
-0.02882971 -0.00230200 -0.01421213
0.0140621 0.02266537 0.47497496
-0.13506393 -0.00230200 -0.03928127
0.009776 -0.01368429 0.18311216
0.01991843 0.03908200 -0.06137519
0.02830085 -0.00721036 0.13959945
0.0295815 0.01397453 0.53313925
0.0208258 0.03406200 -0.03216881
-0.016925 -0.01488674 -0.19898786
-0.00415343 0.00193730 0.58304767
0.03472095 0.03908200 -0.03142196
0.00045176 0.01661406 0.47095748
-0.182788 -0.00230200 -0.0473122
-0.14224775 -0.02622630 -0.056963
-0.19027998 -0.05116000 0.00954851
0.00458406 0.00538707 0.53160679
-0.16940237 -0.05116000 0.00301484
-0.08593396 -0.04624304 -0.03055325
0.02486877 0.03406200 -0.02959126
0.00040979 0.01655938 0.17441284
-0.016925 0.01383506 -0.01482569
0.03071158 0.03406200 -0.00971551
0.02112085 0.02708177 0.028381
0.00240355 -0.00994786 0.13077922
0.01070103 -0.00469008 0.3875151
-0.016925 -0.00102474 0.03407042
-0.09914094 -0.05116000 0.02468158
-0.09755661 -0.00230200 -0.04687328
0.00049777 -0.03045942 -0.31275201
-0.016925 -0.02711863 0.03706192
0.044598 0.02696407 0.03252165
-0.10866783 -0.05116000 0.00620312
0.00568535 0.00893628 0.42984736
-0.0040666 0.00715523 0.15679756
0.02972798 0.02175700 0.0259708
0.00122739 0.01747751 0.57380634
0.01109822 -0.01385839 0.06914119
0.044598 0.01762433 -0.20767208
-0.016925 0.01338245 -0.25594735
0.00094256 -0.00882140 0.51156527
-0.11750551 -0.00230200 -0.04402063
0.02149219 -0.00161767 0.17350451
-0.04263885 -0.01867513 -0.03677208
-0.00139249 0.01421162 0.18693624
-0.16869631 -0.00230200 -0.0114074
-0.00134506 -0.00584063 0.56927487
0.00613444 -0.00112045 0.4384177
0.00451693 0.02000124 0.51031588
0.02137764 0.01019900 0.41608693
-0.01004747 0.03908200 -0.23740439
-0.10269636 -0.00230200 -0.02222556
0.00243446 0.03908200 -0.21740825
-0.21174701 -0.01974778 -0.01768046
-0.04208887 -0.00230200 -0.02336723
0.044598 -0.00889655 -0.14288635
-0.013849 0.02302014 -0.27681451
0.02295043 0.00101038 0.30685839
0.044598 0.02577072 -0.06683185
-0.08268801 -0.04417620 -0.02810882
-0.12881074 -0.05116000 -0.01626445
0.00042236 0.01657576 0.54106265
0.02575295 0.01826543 0.12049501
0.044598 0.01168393 -0.21676913
-0.13928558 -0.01165689 0.028381
-0.12909391 -0.05116000 -0.02135321
-0.13413678 -0.05069288 0.028381
-0.016925 0.01155432 -0.26430783
0.01022712 0.01292622 0.46830421
0.00076733 0.01702513 0.53091194
0.048699 -0.01342956 -0.000834
0.04244948 0.03406200 -0.00710605
0.044598 -0.00512943 -0.22057671
0.044598 -0.01112849 -0.19597219
0.02851769 -0.03269400 -0.04907368
0.01813154 0.03908200 -0.20790546
0.01465769 -0.00527197 0.11819311
-0.01394632 0.02175700 -0.01751727
-0.20420801 -0.05116000 0.00675896
-0.00145189 0.03908200 -0.01045888
0.00806529 -0.00328770 -0.34495087
0.0318331 -0.00055262 0.33787774
-0.20025785 -0.02396720 -0.056963
0.044598 0.03800859 -0.05827536
-0.00376274 -0.00071128 0.52609798
0.02405407 0.03406200 -0.01128448
-0.07164019 -0.03714157 -0.05488713
-0.05331844 -0.02547530 0.01165247
0.02101181 0.02111980 0.19517511
-0.01637115 0.01537400 -0.22753798
0.03201157 0.00762705 0.310442
0.01090649 0.01320750 0.06240918
0.044598 -0.00848287 -0.16032732
-0.016925 -0.00940950 -0.02293102
0.02442609 -0.03269400 -0.15784541
0.00879216 0.02186385 0.53602944
0.03111025 -0.00230314 0.13954836
0.02260719 -0.03269400 -0.02723765
0.00462441 0.00273827 0.10940409
0.01652567 0.01344551 0.20236215
-0.06690562 -0.01266432 -0.056963
-0.12707112 -0.05116000 0.02637012
0.01857569 -0.03269400 -0.30053062
0.03162049 0.00950365 0.10485618
0.02910016 0.01460156 0.12817671
-0.02880556 -0.00986687 -0.01375322
0.04350497 0.03908200 -0.08251221
-0.13591712 -0.05116000 -0.03338285
0.01991745 -0.01314118 0.33113756
-0.016925 0.00818135 -0.04070254
-0.00366295 -0.00095215 0.26470808
0.00936402 -0.00413593 0.40608326
0.02823353 0.01573047 0.32031464
0.03688728 -0.03269400 -0.06067574
0.03171945 0.00926472 0.11455331
0.00881055 0.02187147 0.50299438
-0.03293449 -0.00230200 -0.05072882
-0.00242927 0.03908200 -0.28084569
-0.00402476 0.00747352 0.19858213
0.01065232 0.03406200 -0.04691038
0.0354023 -0.03269400 -0.06285358
-0.11738194 -0.00230200 -0.04602243
-0.01121469 -0.03269400 -0.26451819
0.0108928 -0.00476956 0.16379383
-0.12206439 -0.05116000 -0.04405304
-0.15578263 -0.00230200 -0.02955389
-0.00412744 0.00173958 0.39837034
-0.0804826 -0.00230200 -0.0126037
0.01590536 0.03908200 -0.31004629
-0.03081465 -0.01114615 -0.01226078
0.03114273 -0.00222474 0.41088925
-0.016925 0.00155899 -0.05473154
0.03244633 0.00411203 0.49548798
0.044598 -0.00646793 -0.00605191
0.03226379 0.00272346 0.46917243
-0.20156806 -0.05116000 0.00854365
-0.00377384 0.03908200 0.03753665
0.00013073 -0.00776358 0.09797786
-0.01487223 0.03908200 0.01359062
0.01827936 -0.00428697 0.22050008
0.03070953 -0.00327038 0.28002957
0.00019818 -0.03269400 -0.07327551
0.02867359 -0.00672467 0.49230105
0.02854805 -0.00688826 0.35957795
0.02208694 0.03908200 -0.19378198
0.01013968 -0.00445742 0.45891896
0.02903783 0.01468275 0.52505424
-0.016925 -0.03262268 -0.26533553
0.00240332 0.01837969 0.18775528
-0.12479069 -0.05116000 -0.01041624
0.044598 -0.01614385 -0.20759251
0.02126218 -0.01258408 0.38318183
0.02239249 0.00876778 0.45500618
0.01628762 -0.00505745 0.12637882
0.00207276 0.01812608 0.3651284
-0.01216913 0.02175700 -0.05442033
0.01829628 0.02210789 0.48538474
-0.1475472 -0.00230200 -0.04988791
0.03127613 -0.00190274 0.47910247
-0.17360374 -0.05116000 0.02808944
0.02251998 -0.03269400 0.03970215
-0.06734449 -0.00230200 0.00667765
-0.016925 0.03527472 -0.05061754
0.03531529 0.02175700 -0.00604931
0.0333486 0.03908200 -0.27613166
0.01649602 0.02234505 0.27063854
0.044598 -0.00895453 0.03119462
-0.10732664 -0.01708775 0.028381
0.01953871 -0.00350149 0.51744736
-0.00879112 0.03406200 0.01001236
0.044598 -0.02794438 -0.15097419
0.00617858 -0.00117800 0.40692022
-0.16277253 -0.00552130 0.028381
-0.07161526 -0.03712569 -0.02735248
-0.02305281 -0.00620385 0.02037576
0.02299379 -0.01186669 0.59559614
-0.013849 0.02752672 -0.29675287
-0.016925 -0.00308040 0.0093397
0.02485084 0.02253188 0.043536
0.02472893 -0.03269400 -0.03040061
-0.016925 0.03808444 -0.12713836
0.00659846 -0.03269400 0.02530451
0.04352659 0.03406200 -0.00269219
0.03041659 -0.00397748 0.52556234
0.048699 -0.02137625 -0.01257185
-0.21174701 -0.01606607 -0.03896094
0.00765355 0.01130801 0.48116835
-0.016925 -0.03092434 -0.2518676
0.044598 0.00554535 -0.307559
0.00471459 0.00273646 -0.32102194
-0.11793174 -0.01698200 0.028381
0.02492275 0.01890252 0.12816403
-0.016925 -0.02816773 -0.18802285
0.02508106 0.03406200 0.02480252
0.00876107 -0.00372529 0.37865935
0.02818805 0.01578972 0.26250966
0.02623349 -0.00946466 0.05635909
0.044598 -0.01073249 -0.09259075
0.044598 0.02978241 -0.09303363
0.01107885 0.00427400 -0.36255735
-0.01264004 0.03406200 -0.03181644
0.044598 -0.02135473 0.00152935
-0.16942052 -0.00230200 0.01294122
-0.00670662 0.03406200 -0.05224196
-0.07164041 -0.00230200 -0.04056446
-0.00194901 -0.00505369 0.29159059
0.00803977 0.01160445 0.12241185
0.0323108 0.00308109 0.0469066
0.01469864 -0.03269400 -0.20082863
-0.016925 -0.02730747 -0.02740596
0.02339117 0.00279584 0.30442372
-0.17913193 -0.00230200 0.01769944
0.01758741 0.03908200 -0.10265286
0.048699 -0.01980124 -0.0074194
0.01027068 -0.03269400 -0.21187442
0.0425229 -0.03269400 -0.16748243
0.00749458 0.01118600 0.56599531
-0.016925 0.00735006 -0.21498886
-0.016925 0.01452639 -0.26407827
-0.14519452 -0.04062393 0.028381
-0.01481711 0.03908200 -0.06139377
0.044598 -0.01175134 0.00786745
0.00403133 -0.03269400 0.03989028
0.00104673 -0.00890691 0.19083383
-0.11133389 -0.05116000 -0.04720107
0.044598 0.02203331 -0.23077565
-0.016925 -0.01221035 -0.29771021
0.03187149 0.00869261 0.37632809
-0.20974863 -0.02109132 -0.056963
0.010624 -0.00988043 -0.34735012
0.01005659 0.03406200 0.00072942
-0.21174701 -0.01206287 -0.03898899
-0.20523791 -0.04554207 0.028381
0.044598 0.02837401 -0.22494243
0.02338604 0.00567515 0.15834933
-0.01403898 0.02852300 -0.1857598
-0.016925 0.01589751 0.02560913
-0.00239553 -0.00401141 0.13990121
-0.00258565 -0.00355252 0.25935117
0.02218789 -0.00071064 0.18706748
0.044598 -0.02987643 -0.1559184
-0.00467493 0.03908200 -0.01932291
-0.21174701 -0.03591767 0.00837559
0.0130752 0.01366781 0.21282261
0.01815225 0.01277235 0.36887705
-0.15419869 -0.00578031 -0.056963
0.03243683 0.00403972 0.21230176
-0.17563807 -0.05116000 -0.04895577
0.02008443 0.01151526 0.34153784
-0.17600813 -0.05116000 -0.02569332
-0.00211152 -0.03269400 -0.17068318
0.01371116 0.03406200 -0.03754344
0.044598 -0.03240585 -0.29549045
0.0238721 0.03908200 -0.1155475
-0.14126175 -0.05116000 0.00681046
0.01658736 -0.01390084 0.04846811
0.044598 -0.01317601 -0.23440696
-0.05112391 -0.00987199 -0.056963
0.01224969 0.01355921 0.5795291
-0.19166204 -0.05116000 -0.02432925
0.00687144 -0.01263612 0.48473953
0.01139692 0.01341056 0.24078654
0.0412305 0.03908200 -0.26761664
0.00360675 -0.03269400 -0.20975435
0.0163671 -0.00504699 0.5611667
-0.01664617 -0.03269400 -0.09586559
-0.1098756 -0.01791071 -0.056963
0.03968786 0.03055725 0.043536
-0.09209393 -0.00230200 0.00360397
0.02718818 -0.00866016 0.54691004
0.02221631 0.00910559 0.38991915
-0.20104157 -0.05116000 -0.05560297
0.044598 0.00236288 -0.0120109
0.044598 -0.01322018 -0.16271698
-0.0214193 -0.00516372 -0.03023641
0.02325847 0.00178721 0.0518406
-0.1086102 -0.00230200 -0.0082422
0.01892025 0.02198631 0.26362389
0.03225415 0.00265016 0.08566599
0.044598 0.02561240 -0.14011245
0.01058185 0.03908200 -0.28882046
0.0369534 -0.03269400 -0.00592882
0.03575713 0.03908200 -0.24379574
-0.07287676 -0.03792894 0.01725223
0.03052451 -0.00371698 0.30066323
0.03662142 0.03406200 -0.04366364
0.02371099 0.03406200 -0.0454185
0.00977979 0.02211679 0.3994709
-0.016925 -0.01991099 -0.0084733
0.01209827 0.02242207 0.15170878
-0.0040704 0.00712634 0.07723424
-0.016925 -0.01481149 -0.30543163
-0.02883164 -0.00988348 -0.05106827
-0.05337293 -0.02551000 -0.02648539
-0.18854013 -0.05116000 -0.03522089
0.044598 0.03262884 -0.30533058
-0.00183223 0.02175700 -0.0205341
0.044598 0.02782840 -0.15684998
-0.1694667 0.00124183 -0.056963
0.02353099 0.00457330 0.54075215
-0.02985417 -0.00230200 -0.05510058
0.03237518 0.00486122 0.25919299
-0.01649173 0.03406200 -0.04298631
-0.16504031 -0.00230200 -0.03695393
-0.00387374 0.02175700 -0.01804928
-0.19561445 -0.04371990 -0.056963
-0.11828255 -0.00230200 -0.05584524
-0.11058484 -0.00230200 0.0160802
-0.18557823 -0.05116000 -0.00996288
0.01447372 0.02261128 0.3586997
0.00785945 -0.03269400 -0.27008677
-0.18886418 -0.04799719 0.028381
0.01128792 0.03908200 -0.09524468
-0.13315955 -0.02833572 -0.056963
-0.21174701 0.00133118 -0.03577424
0.02557816 0.01839956 0.50844262
0.03231264 0.03908200 -0.25984684
0.04062674 0.02175700 0.00293431
0.02821184 -0.00732634 0.07699348
-0.016925 -0.00382715 -0.0871584
-0.00385703 -0.00031738 0.54965699
0.00547498 0.00000327 0.19425485
-0.013849 0.02403752 -0.18909303
-0.13265806 -0.05116000 -0.00982907
-0.05139973 -0.00230200 -0.03169929
0.044598 0.03193296 -0.09472155
0.00422174 0.01977478 0.43058602
0.00339689 0.01914195 0.26618011
0.02564032 -0.03269400 -0.16712313
0.00711314 -0.03269400 -0.03883596
-0.016925 -0.01998949 -0.05043384
0.01677318 -0.03269400 -0.23432164
0.01974022 -0.03269400 -0.13821794
0.00028093 0.03908200 -0.19027073
0.03162226 0.03908200 -0.16229378
-0.016925 0.00186350 -0.25583489
0.02482321 0.01897891 0.07206447
-0.03040279 -0.01088390 -0.04220249
0.01406756 0.01378163 0.52565185
-0.16761319 -0.02209092 -0.056963
0.00402509 0.03908200 0.03648023
-0.01646204 0.03441987 0.043536
0.02356364 0.00432513 0.24328777
0.02332471 0.02012885 0.54745056
-0.016925 -0.01184470 -0.06203804
0.01190386 0.02239647 0.15454279
0.02549379 -0.01003231 0.39562192
0.044598 -0.00721110 -0.21454348
0.044598 0.03692888 -0.16328108
-0.016925 -0.01046662 -0.24619591
0.01444456 0.02261503 0.09125498
0.044598 0.00078103 -0.22345503
0.00159791 0.00164182 0.59723997
-0.016925 0.00332949 -0.3070124
0.01704837 0.01322919 0.55656313
-0.10913988 -0.00230200 -0.01669182
0.0289097 0.01484965 0.28052734
-0.0142811 0.02852300 -0.08562927
-0.10063214 -0.05116000 -0.04197991
0.01094876 -0.03269400 -0.05981504
-0.016925 0.00350935 -0.30443835
-0.00917125 -0.03269400 -0.13960452
-0.01095815 0.03908200 0.01248643
0.02926372 0.01438849 0.22112891
-0.0840805 -0.04506286 0.02353523
0.02122226 -0.00196959 0.18845655
0.01369602 0.02263245 0.16087251
-0.0957267 -0.05116000 0.00181896
-0.016925 0.00368985 0.02772284
0.02548634 -0.01003802 0.31515549
-0.016925 -0.01398842 -0.10377085
-0.016925 0.03280651 -0.10053575
-0.15248966 -0.04247471 -0.056963
0.00671726 0.02175700 0.00664781
0.03072718 0.02175700 -0.01177034
0.03055766 -0.00363697 0.46197376
0.01661713 -0.01552712 0.043536
-0.016925 -0.00832721 0.01312697
0.00032642 -0.03269400 -0.20669088
0.01080067 0.02225121 0.57542637
0.03111413 0.01072617 0.20234788
-0.00391779 0.00014479 0.54225234
0.02418316 0.01947008 0.1673626
-0.17750013 -0.03212144 -0.056963
-0.20660523 -0.05116000 0.01239367
-0.016925 0.00599579 -0.24911435
-0.21174701 -0.04485996 -0.00074818
0.04090284 -0.03269400 -0.09780009
-0.2112565 -0.00230200 -0.0515774
0.03333912 0.03908200 -0.00071606
-0.00147756 -0.00566798 0.24463356
0.044598 -0.01930239 -0.05797425
0.02436824 0.01932805 0.37212649
0.00235011 -0.00990686 0.35700953
0.01335354 0.02258735 0.17674007
0.02506713 -0.01035972 0.56757494
0.00868271 -0.00366519 0.52857499
-0.016925 0.01369739 -0.28338839
0.01553617 -0.03269400 -0.16615242
0.0333733 0.00104282 -0.31275201
-0.20818857 -0.03477083 -0.056963
0.03035505 0.03406200 0.01027623
0.01425978 -0.00885583 -0.31275201
0.01493439 0.02255066 0.25043568
-0.00173242 0.03908200 -0.25896683
-0.04673286 -0.00230200 -0.01965791
0.01916582 -0.00378750 0.10775062
-0.01597943 0.03908200 -0.1456594
-0.00300149 -0.00254876 0.15076741
0.044598 0.03753292 -0.13153603
-0.013849 0.02261831 -0.23639318
0.02866 0.01517493 0.49382483
0.00774003 -0.00294214 0.12569926
0.01055174 -0.01378643 0.59391742
0.01505076 -0.00522023 0.586992
0.00013897 0.03908200 -0.15094505
-0.0258371 -0.00230200 0.00392279
-0.00318253 -0.00211177 0.17844739
0.044598 0.01820059 -0.05469175
0.02442831 0.01928195 0.47723443
-0.10946873 -0.00230200 0.00878957
-0.00233383 0.01259315 0.11684685
-0.12570722 -0.05116000 -0.00827759
-0.02515858 -0.00230200 -0.04219911
0.01009506 0.01287155 0.36367752
0.01071915 -0.03269400 -0.26815812
0.044598 0.00360863 -0.18454466
0.02067193 0.01106434 0.46299883
0.044598 0.02442981 -0.06343112
0.044598 0.00427625 -0.2987528
-0.03072697 0.00188563 -0.056963
-0.00437488 0.00481023 0.39808467
-0.01197076 0.03207556 -0.31275201
0.0234086 -0.01163248 0.12185397
-0.11450255 -0.01111818 -0.056963
-0.00884313 0.03908200 -0.28027757
-0.10209065 -0.03458122 0.028381
-0.016925 -0.02399077 -0.00202296
0.02542469 0.03406200 -0.00452076
-0.01323132 -0.03269400 -0.1847091
-0.016925 0.03163641 -0.26092911
0.00999947 0.03908200 -0.18750875
0.0211663 -0.00204254 0.5037475
0.00520273 0.02037679 0.28067499
-0.03327746 -0.00230200 -0.03117721
-0.01659317 0.02852300 -0.09159998
0.0156863 0.02175700 -0.04767265
0.03463543 0.03908200 -0.01461868
-0.06001326 -0.02973819 -0.00136495
-0.20713429 -0.05116000 -0.04474213
-0.16824463 -0.03062509 0.028381
-0.11905174 -0.05116000 -0.04789577
-0.03264666 -0.00230200 0.00235887
0.03101916 0.01095545 0.56022097
0.0253282 0.01859138 0.3645038
0.0259595 -0.00967492 0.10452127
-0.01665352 0.03406200 -0.04044379
0.00912226 -0.00400233 0.48952054
0.044598 0.00963162 -0.02219062
-0.016925 -0.02121862 -0.22959152
0.00728783 0.03908200 -0.20694839
-0.03302404 0.02613047 -0.07598793
-0.08898486 -0.00230200 -0.02660282
0.01101864 -0.01384791 0.53921498
0.044598 0.01544146 -0.22863842
0.02796395 0.01608165 0.45158691
