# .PCD v0.7 - Point Cloud Data file format
VERSION 0.7
FIELDS x y z
SIZE 4 4 4
TYPE F F F
COUNT 1 1 1
WIDTH 1390
HEIGHT 1
VIEWPOINT 0 0 0 1 0 0 0
POINTS 1390
DATA ascii
-0.01341218 0.03228980 -0.51942175
-0.01972278 0.03454809 -0.0832562
-0.03889574 -0.01506670 -0.30686351
0.03247209 0.01902696 -0.0895687
-0.02049223 0.00773933 0.36054879
-0.03120576 0.02497093 -0.20567462
-0.04320095 0.00624861 -0.01586244
0.01805801 0.03351838 -0.05829245
-0.02401148 -0.03810495 -0.03448042
0.06467163 -0.00644303 -0.48111569
-0.02481315 -0.03731588 -0.04754548
0.0259948 -0.03174980 -0.11859666
-0.0310825 0.02796618 -0.01060971
0.03243817 0.01566715 -0.24412719
-0.03661419 -0.01684159 -0.44214164
0.02643955 -0.03261852 -0.02772304
-0.02485107 0.02610453 -0.54241858
-0.00227214 -0.04469099 0.00878999
-0.00978899 0.03936643 0.07021732
-0.04194302 0.01215910 0.0366516
0.01841075 0.02613141 0.31511125
-0.00550914 0.03940403 0.02096658
0.02219616 0.03444678 0.24305885
0.02461041 -0.03497163 0.04360482
-0.0144559 0.03833076 0.0566349
-0.0422142 0.00521938 -0.12121437
0.02547596 0.02085658 -0.55122737
-0.02623749 -0.01237827 -0.40772599
0.0302603 -0.03251998 0.2319476
0.01149636 -0.03668445 -0.45899364
0.02317659 0.03241864 0.14728462
0.03536281 0.02038290 0.20565938
0.01270146 0.03260545 -0.33221285
0.0292076 -0.02777790 -0.12039788
0.03260248 0.01086852 -0.4035937
0.00737332 0.00281708 -0.40772599
0.02278136 0.03139333 0.27926349
-0.03276843 -0.02269716 -0.52772231
0.03951079 -0.00432591 0.00627215
0.01963977 -0.03207658 -0.46017708
0.02901352 -0.03436018 0.25174956
-0.12180519 -0.00301161 -0.47241437
-0.03847959 -0.00737745 -0.50720232
-0.00384312 -0.04529771 0.08146542
-0.06885837 -0.00281185 -0.39094641
0.03335212 -0.02798121 0.20263039
-0.01403305 0.03892729 0.09348189
0.00257061 -0.04455152 0.05549186
-0.01895132 0.03522068 -0.05240092
0.01069273 -0.04368147 0.12384184
-0.02168316 -0.03414737 -0.46578623
0.0365732 0.01403441 0.27854496
-0.03840866 0.02288049 0.21481331
-0.01546347 0.03404281 -0.28185501
-0.00480561 -0.03971002 -0.4312316
0.02868575 -0.03247383 0.27305328
-0.03379447 0.02090282 -0.24574029
0.03586978 -0.02562007 0.25557878
-0.01559898 0.03877966 0.13733637
0.01891897 -0.03489176 -0.29028186
-0.02143319 0.03174669 -0.26627112
0.03994637 0.00784315 0.15277921
0.06121945 0.00213422 -0.44968486
0.00606069 -0.04046014 -0.285494
0.01068935 0.02177080 0.34233285
0.03457427 -0.00892062 -0.4002832
-0.03838756 0.00426288 -0.49219452
-0.02955949 0.02702130 -0.16935037
-0.01933277 -0.04088983 0.01720983
-0.01819883 -0.04281636 0.14464898
0.03539058 -0.01749276 0.28916388
0.03514788 0.00311371 -0.35604951
0.0002181 0.03535212 -0.36508987
0.03873205 -0.01865074 0.2321851
-0.02446029 0.03328780 0.00757018
0.03799189 -0.02058375 0.23746217
0.02389815 0.02679910 -0.23332642
0.03074402 0.01905230 -0.21787363
-0.04529427 0.00029552 0.27350746
-0.03212486 -0.02457021 -0.44986512
0.01009107 0.03465716 -0.2473074
0.09973229 -0.00532974 -0.47894714
-0.03125101 -0.02955525 -0.22818228
0.0198984 -0.03651969 -0.11161927
0.00758641 -0.04535715 0.19302033
0.03379453 -0.02257802 -0.05741369
0.03082011 0.00202625 -0.40945392
0.03313362 0.01501410 -0.20696286
0.00628752 0.03310413 -0.50105552
0.02826256 -0.02964854 -0.08360769
0.01984392 0.03485322 0.138056
-0.03932337 0.00225255 -0.4291941
0.0313335 0.01100864 -0.52620289
-0.09102304 -0.00310766 -0.42818133
0.02593922 0.02521592 -0.22357739
-0.02476576 -0.03763616 -0.02622647
-0.02678208 0.03214805 0.05573244
-0.04655955 -0.00425743 0.26133276
-0.002421 0.02980637 -0.41562155
0.00724252 0.03356775 -0.44573997
-0.0562352 -0.00597089 -0.41883505
-0.01104167 0.03420999 0.213213
-0.03113273 0.02947702 0.10564383
-0.0068837 0.04093479 0.18159544
-0.01278363 -0.03758015 -0.53611197
-0.01989772 0.03295958 -0.21586213
0.00661369 0.03944306 0.09792065
0.01932511 0.03624467 0.22624471
0.02966308 0.02087769 -0.19386684
-0.04302925 0.00526246 -0.04416855
0.01032444 0.03227996 -0.4468033
0.03713638 -0.01809171 0.07237251
0.00607275 0.03756168 -0.08535601
-0.04008329 -0.01177372 -0.30241265
-0.03022944 -0.02609832 -0.50417167
0.0337063 0.00888003 -0.37910112
0.03359833 -0.01114134 -0.464434
-0.03173425 0.01916779 -0.50045607
0.01741214 0.03694132 0.21787849
0.024707 -0.02689269 -0.54201291
0.03445967 0.01039077 -0.2584774
0.02368219 -0.00801323 0.34462166
0.03146212 -0.02669353 -0.01352515
-0.03857711 -0.00494949 0.31181067
-0.02917434 -0.02738093 -0.53929841
-0.03888798 -0.02356410 0.0003694
0.02316093 0.03373670 0.24532959
-0.03569028 0.02256220 -0.00770907
0.03280766 -0.01962602 -0.25069245
0.01843046 -0.03248368 -0.49925617
0.01657232 0.03684684 0.17914817
-0.03092205 -0.03334603 0.00628095
-0.00137416 -0.00432821 -0.41099985
-0.03148818 -0.02775822 -0.31391119
-0.04118768 -0.01107904 -0.20732314
-0.03761907 0.01230179 -0.3363998
-0.03707108 0.01687106 -0.21877042
0.02064171 0.02782552 -0.34390374
0.0030357 0.03693474 -0.1817324
0.02243404 0.02950413 -0.11458013
-0.02643633 -0.03242064 0.30228922
0.02421967 0.03102317 0.10256
0.04039196 0.00660041 0.17924468
0.01276632 0.02817291 -0.54064999
0.01107478 -0.04085324 -0.10965525
0.02598907 -0.03596159 0.19739987
-0.01251104 0.03606594 -0.20599869
-0.04075568 0.00440478 -0.26819496
0.01830079 0.02909625 -0.38338472
0.03142627 -0.01953095 -0.37497235
-0.01707555 0.03619413 -0.0352765
0.03854073 -0.01611336 0.12354072
0.00247459 0.03471488 -0.39700776
0.02573146 0.01691550 -0.54811001
-0.05742921 -0.00013192 -0.40479201
0.03407861 0.02043265 0.11202014
-0.00119512 0.04189703 0.23195528
-0.03862408 -0.00247039 -0.45711964
-0.02115803 -0.03534044 -0.4018575
-0.00268066 -0.02889436 0.3457109
0.02490365 0.02975716 0.27930175
-0.0716135 0.00122147 -0.4458039
-0.02465662 -0.04035243 0.17144432
-0.04185339 -0.01376044 -0.09544396
-0.01099317 -0.04170856 -0.16720676
0.03380472 -0.01685980 -0.26367112
0.03684682 -0.00036697 -0.37714272
-0.03907115 0.00140125 -0.43458602
0.00152849 0.03954589 0.04484078
0.02989357 0.02483858 0.05169269
-0.01052064 0.03926652 0.06986241
-0.02979702 -0.02878242 -0.38194029
-0.01225365 -0.03815017 -0.47886247
-0.00447464 -0.04366794 -0.0637472
0.00349651 -0.04021364 0.30314988
-0.00554162 -0.04683762 0.246941
0.0383911 -0.01385538 0.02867262
0.0258442 0.01742154 0.31881611
0.07190682 0.00129692 -0.45296172
-0.03385513 -0.02128097 -0.54754998
-0.03576856 -0.00665902 -0.41771923
-0.02278328 0.03320249 -0.08996731
0.01513883 -0.03909062 -0.1165969
-0.04654598 -0.00613535 0.23458523
0.01305574 -0.03546078 -0.52594929
0.0228271 -0.03257928 -0.2388351
-0.08954436 -0.00556160 -0.46219417
0.03428638 -0.02571763 0.14239129
0.02495248 0.02836170 -0.05526579
0.00489147 -0.00982717 -0.41433078
-0.00896017 0.03832572 -0.03768546
-0.02192942 0.02834692 -0.52396416
-0.04328767 0.01062097 0.27449434
0.01252216 -0.03840612 -0.27122715
-0.03076566 -0.00309165 0.213213
0.07434576 -0.00735064 -0.4716385
0.01538869 -0.03642896 -0.34028556
-0.04230202 0.01506780 0.26586186
-0.0422524 -0.00283147 -0.2092868
-0.0041058 0.03393913 -0.53293802
0.03384112 -0.02585212 0.11669508
0.02145258 -0.03947494 0.19985881
0.02594782 -0.02846757 -0.3255195
0.02261451 0.03106046 0.01281426
0.03018887 0.00803127 -0.52151293
0.04005484 0.00631172 0.14403405
-0.01256808 -0.04031455 -0.27815306
-0.00600499 -0.04033799 0.30394311
0.0057121 0.03577417 -0.25757597
-0.03809557 0.01215935 -0.29988049
-0.1167701 -0.00194939 -0.4659688
-0.04162602 -0.00701957 -0.41264184
0.02975883 0.02295011 0.00897165
-0.03296395 0.02221017 -0.23276953
0.02804766 0.02855901 0.13815993
0.01342015 0.03028047 -0.55051607
0.03312428 -0.02075618 -0.18204993
0.03998497 -0.00115971 0.0451438
-0.03677351 0.01040138 -0.47916846
-0.01047302 0.03754007 -0.09277023
2.429e-05 0.00661061 -0.41388171
0.04361544 0.00448932 -0.45868482
5.224e-05 0.03973343 0.04423783
-0.04048994 0.00258700 -0.31559952
0.03315739 0.00581131 -0.54687734
-0.01882909 -0.04110142 0.01747292
-0.02402164 0.01147505 0.34713527
0.00457678 -0.04362317 0.28286376
-0.02845872 0.02574114 -0.32886138
-0.04249122 0.01187456 0.07429103
-0.03095868 0.03127728 0.23107311
-0.01958665 0.02184864 0.33501224
0.00824202 0.03333496 -0.42996855
0.0407193 -0.00244748 0.09815563
0.03583106 0.00642643 -0.25098011
0.03217742 0.01608075 -0.25194958
-0.01011533 0.03093123 -0.54919727
-0.03350351 0.02368235 -0.10737904
0.03420288 -0.00314386 -0.5065206
-0.04278327 0.01555580 0.23314368
-0.03941971 -0.02670937 0.26033293
0.01576481 -0.03621795 -0.34511728
0.01852471 -0.03729074 -0.13283445
0.01750238 -0.03831461 -0.0988725
-0.00763393 -0.00772793 -0.4111543
-0.00736226 0.00552523 0.38458664
-0.02993137 0.02562368 -0.2528081
-0.00122901 -0.02468261 0.213213
0.00289693 -0.04371189 -0.01929769
-0.01276433 -0.04404723 0.07419517
0.02585028 -0.02179065 -0.52363985
0.02739124 0.01836060 -0.51039735
0.08587986 0.00162942 -0.47830132
0.01233146 -0.03437841 0.31653939
-0.01723605 -0.02628130 0.213213
0.0184322 0.03654318 0.26050067
-0.03846767 0.00663824 -0.4553005
0.012259 -0.04390564 0.20015459
-0.00684841 -0.04308753 -0.08893772
-0.04142418 0.01678418 0.1588195
-0.01756165 -0.00541134 0.213213
-0.05986004 -0.00778151 -0.45092485
0.00781724 0.03951241 0.11928689
-0.04290253 -0.00737297 -0.09214684
-0.01245142 0.03434109 -0.36491849
-0.02171237 0.03393313 -0.06489457
0.08686749 -0.00507820 -0.45642229
-0.0055753 -0.04027187 -0.36898484
0.01040686 -0.03948891 -0.25319521
-0.00992405 0.03511942 -0.32674346
0.09022432 0.00063719 -0.47001646
0.00255619 0.03471902 -0.39561094
-0.02497412 0.03065253 -0.16076354
-0.03464649 -0.02370329 -0.31038979
-0.06863937 0.00133334 -0.44304448
0.0367754 0.01722797 0.19171042
-0.04134552 -0.01462807 -0.10843413
-0.02912087 -0.00788896 0.34308642
0.01615356 -0.03696538 -0.26568638
-0.03586197 -0.02212043 -0.31032337
-0.03153738 0.02268245 -0.31268929
-0.04867637 -0.00843417 -0.44396878
0.03370582 0.00164722 -0.51640275
-0.03394992 0.02573097 0.04424537
0.04407742 0.00512524 -0.48132855
0.01022232 -0.03943007 -0.26503101
0.01778141 -0.03481970 -0.36121096
-0.02502379 -0.03125828 -0.490377
0.00199669 0.03971876 0.06684923
-0.03145528 -0.03386890 0.07628307
-0.0376045 -0.01942520 -0.26188874
0.03268168 0.01447944 -0.26585205
-0.03677576 -0.00329931 -0.51252055
-0.03834709 0.00091894 0.213213
-0.00184751 0.03489467 -0.43353467
-0.04260353 0.01181046 0.08179182
0.01036881 0.03723049 -0.01219942
0.02601887 -0.03249043 -0.06158439
-0.01624214 0.00118860 -0.41594905
-0.00210119 0.03437619 -0.48534735
0.0211308 -0.03268153 -0.32887101
-0.03859888 0.01701695 -0.07985894
-0.00753104 0.01062606 -0.42026401
-0.00195545 -0.03725875 0.31905555
0.03571433 -0.00654140 -0.32268704
-0.00145047 0.02918106 0.32912154
0.00608527 0.00684853 -0.40772599
0.03724187 0.00074192 -0.1888302
0.00476293 0.03772956 -0.08578794
-0.03117215 0.01343366 0.32541092
-0.02689892 -0.03764448 0.0972913
0.00011145 -0.04387353 -0.03851005
-0.03791857 -0.02422642 0.28468394
0.03732628 -0.01749260 0.2779509
0.0545146 -0.00385320 -0.39103519
-0.03449391 -0.03264172 0.19327636
0.03153418 0.00130497 -0.53355813
0.03345931 0.00351889 -0.51144505
-0.09784715 -0.00470939 -0.4619336
0.02936087 -0.03020587 0.03100202
-0.00685987 0.03624986 -0.2584772
0.03376055 0.01248207 0.213213
8.991e-05 -0.04610746 0.17093265
-0.03232228 0.02490679 -0.125513
0.02272313 0.03284267 0.1530022
-0.00674735 -0.02971787 0.3421257
-0.04965958 0.00298941 -0.43934137
0.02809413 -0.03352524 0.13572027
0.03780547 0.01488214 0.19682381
0.01467322 0.03702250 0.12566098
0.01713166 -0.03758993 -0.17566112
0.02642628 -0.03286389 -0.01005946
-0.04469534 0.00877390 0.1556348
-0.028946 0.02918752 -0.04199915
-0.05449387 -0.00826008 -0.45002765
0.00216828 -0.03636940 -0.53768411
-0.03646889 0.01399665 -0.37557741
0.02748909 0.02155240 -0.3182331
0.04085719 -0.00681412 -0.4147487
0.01592222 0.03217622 -0.25305335
-0.04258952 -0.01782254 0.11615556
-0.01991171 0.03680795 0.12127026
0.02365392 -0.02826505 -0.50986459
-0.0223572 0.03281949 -0.13892194
-0.02220711 -0.00251500 -0.40782959
-0.02086218 -0.03030038 -0.41795139
0.02770716 0.02014818 -0.3827719
0.02874048 -0.03206934 0.09176384
0.00953177 0.03428394 0.30130336
-0.01623639 0.03356492 -0.29563986
0.01929354 -0.03885992 0.02928667
0.00283584 -0.02923940 0.34306665
0.02417293 0.02553325 -0.31250544
0.02378112 -0.03589682 0.06530437
0.03470989 -0.00150973 -0.45428529
0.03490721 -0.00914081 -0.36631254
0.03687489 -0.01917031 0.08857651
-0.03660827 -0.02570865 -0.0473835
-0.01162757 -0.01406231 0.37350081
-0.04094522 0.00600835 -0.23058793
-0.03056738 0.01692302 -0.52451859
0.02356097 0.02575924 -0.33080109
-0.03994942 0.01920879 0.11888311
-0.04354675 -0.01460484 0.08330403
-0.04135425 -0.00759375 -0.23475495
-0.03279852 -0.00472664 0.33292838
0.02677386 -0.03108817 -0.11248734
0.0280361 -0.02834788 0.29402263
0.01114138 0.03951271 0.21540145
0.01259051 0.03715356 0.06161739
0.01280163 0.01763060 -0.40772599
0.03053644 0.02707573 0.22901411
-0.02402817 -0.03579350 -0.20708034
-0.00043292 0.03168309 -0.54192435
-0.01638916 0.03183475 -0.44141577
-0.00461348 0.03691585 -0.22372125
0.0342576 -0.01308974 -0.36057636
0.05775541 -0.00340047 -0.38909474
-0.03488632 -0.02820972 -0.0326184
0.01486975 0.03279036 -0.23747862
0.01386278 0.03225522 -0.32076347
0.07456761 -0.00365379 -0.41741862
-0.01473669 -0.03706692 -0.48359781
0.04140648 -0.00498151 0.19230658
0.03474097 -0.01044274 -0.36582262
-0.03796427 0.01169014 -0.32837495
0.05045606 -0.00666638 -0.42660637
-0.03293845 0.02763055 0.07778077
0.0150262 -0.00806667 -0.42026401
-0.03038397 -0.02980543 -0.2789004
0.03324114 -0.01020464 -0.51688366
0.02067968 0.02346488 0.31832298
-0.02947474 -0.00385696 0.34355389
0.02854667 -0.02485610 -0.33844768
0.0258739 -0.03220248 -0.09156531
0.017368 -0.01956985 0.213213
0.00542183 0.03888156 0.03049516
0.03682415 -0.01799645 0.04160901
-0.03711464 0.01862487 -0.12766542
-0.03845189 -0.01234115 -0.44437347
0.03318371 -0.01064065 -0.52589156
0.00235005 0.03684608 -0.19852307
0.01811019 -0.03947573 0.02466341
0.04138198 -0.00489734 0.18896601
-0.0142986 -0.04520796 0.21256134
-0.02173064 -0.04052313 0.071995
0.01238256 -0.03824584 -0.29030628
0.01484124 -0.03763237 -0.25488112
0.00048693 -0.03659091 -0.54946656
0.03134617 -0.01714163 -0.46849677
-0.04135405 -0.02229395 0.17009118
0.01099927 -0.03296645 0.32340995
0.04101059 -0.00491617 0.15434071
-0.04126801 -0.01640332 -0.05088368
-0.01519523 0.03396129 -0.29870441
-0.06248522 0.00310644 -0.46008931
-0.00036196 -0.03670274 -0.54493169
-0.04194585 0.00209892 -0.18496545
0.01629866 0.03007150 -0.42347775
0.00597346 0.03705808 -0.13384713
-0.01230341 -0.04500103 0.15804024
0.03256422 -0.01653349 -0.38398409
-0.05607966 -0.00963664 -0.47268935
0.03178632 0.00991551 -0.55833888
-0.02422928 0.02745937 -0.44357351
0.01958365 -0.03341781 0.30418243
0.00907098 0.00309659 0.213213
-0.00095802 0.04008649 0.06492505
-0.04247623 -0.01977242 0.17689786
-0.04265955 0.00029588 -0.14024819
-0.01641016 -0.04406824 0.18935845
0.03522176 -0.01635196 -0.15812287
0.02946785 0.02075928 -0.21534648
0.0197866 -0.02853638 -0.53997445
-0.00878011 0.03876868 0.28229963
-0.03596657 0.02461826 0.1315666
0.03198226 0.00944252 -0.52532158
0.08944683 -0.00233432 -0.42504156
-0.00963108 0.03660527 -0.19089406
-0.03709692 -0.01691569 -0.39723378
-0.00737876 -0.04339493 -0.05353135
0.0172668 0.03461691 0.28179565
-0.02551883 -0.03792545 0.03888081
0.03530145 -0.00108680 -0.39355146
0.0315548 -0.02089914 -0.31416035
-0.01175046 0.03751751 -0.07913429
0.03470157 -0.00293575 -0.4622862
0.0243137 -0.03615131 0.11510676
-0.04167191 0.01524679 0.12479306
-0.01966871 0.03769573 0.19011365
0.03081464 -0.02153096 -0.35601383
0.0113323 0.03297285 -0.34969053
-0.02809804 0.02361245 -0.51233611
-0.03920998 0.00335236 -0.42623877
0.02452091 -0.03725014 0.20957564
-0.03956292 -0.00422947 -0.44447603
0.07083545 0.00029482 -0.43661126
-0.01748046 0.01765229 0.213213
-0.03600289 -0.01490096 -0.55890697
-0.02308273 -0.03255503 -0.50478353
0.03905989 -0.00427548 -0.03667364
0.00976225 -0.04043863 -0.19349425
0.0347965 0.00544825 -0.36017305
0.01664658 -0.03495142 -0.41668053
0.03796158 -0.01119885 -0.05419054
0.00644628 0.03743799 -0.092348
-0.01501152 -0.00254459 -0.40772599
-0.04207981 -0.00632270 -0.18235169
0.00717191 0.03706142 -0.11872161
-0.04474724 0.00232982 0.08086058
0.02559613 0.03163071 0.22756172
0.03698122 0.00670894 -0.13953843
0.03381299 -0.02076543 -0.12147023
0.0167331 -0.03560116 -0.36290422
-0.04197048 -0.02066681 0.16505993
-0.01094114 0.03334104 -0.48113599
-0.03257687 -0.02725265 -0.26125769
-0.03434093 0.02661374 0.12450192
0.00922437 0.03511455 -0.23872922
-0.00347471 0.04210160 0.24902639
0.01213648 0.03702337 0.03377188
-0.01268294 -0.04489606 0.15287016
0.02631602 -0.03409270 0.0758768
-0.01496909 -0.03856318 0.30333654
-0.039128 0.00017826 -0.43172032
-0.0451012 0.00010135 0.08654496
-0.01788812 0.02805689 -0.5214306
-0.00998899 -0.04579059 0.20359872
0.01648548 -0.03905353 -0.07108128
0.02946406 0.01959208 -0.28288533
-0.04466447 -0.00459768 0.0389545
-0.03093743 0.02099018 -0.45527577
-0.0002692 -0.03890686 -0.54011238
0.02591254 -0.02736016 -0.39198512
0.03258889 -0.02037503 -0.2426922
-0.04037351 -0.00613796 -0.34480314
0.01290209 -0.03607613 -0.46124612
-0.02996034 -0.02274397 -0.54719587
-0.02046527 0.03730866 0.18514383
-0.03512287 -0.03138165 0.16792013
-0.00897806 -0.04200104 -0.16464196
0.03223462 0.01610443 -0.24608953
0.04020548 0.00205647 0.10558687
-0.03374794 0.02595728 0.04212127
-0.02190621 0.03521006 0.05383122
-0.02519745 -0.03548927 -0.16256072
0.00725687 -0.04593700 0.24353871
-0.03511193 0.02156689 -0.10852368
-0.03701558 0.02104013 0.00408843
0.01161108 -0.04254723 0.05791572
-0.03989236 -0.01081186 -0.33221899
-0.00948857 0.00183475 0.213213
-0.04498661 -0.00917521 0.2713503
0.01135269 0.03834103 0.12058711
-0.03938545 0.00455762 -0.39489609
-0.00173611 0.03890940 -0.05519674
-0.03953442 -0.00118878 0.30829783
0.01320511 0.03347463 -0.2379522
-0.02728086 -0.02984409 -0.46658801
0.005147 0.04102607 0.22842943
0.03496786 0.00098384 -0.39927557
0.00428506 -0.04264220 -0.10257778
0.03667207 0.00645700 -0.17166788
0.02728156 0.00225849 0.213213
-0.01236234 0.03770911 0.28595542
0.02758175 -0.02314633 -0.54054124
-0.04408744 0.00114108 0.0042299
-0.07448539 0.00222449 -0.46486785
0.02722416 0.00508475 -0.42026401
-0.03256702 0.02654784 -0.01253074
-0.0241391 -0.03555969 -0.21824599
-0.00818077 0.03447076 -0.40919341
0.03575675 0.01956494 0.18807851
0.10106174 -0.00344049 -0.45301678
0.03023176 -0.03186645 0.26368969
0.01451772 0.03684715 0.10468911
0.04640999 0.00224545 -0.42966837
0.01357548 0.03830560 0.19807164
0.03180699 -0.01489626 -0.55178573
0.02778545 0.02051337 -0.35584972
0.03007464 0.02308138 -0.0360309
0.03155728 0.00112950 -0.54556278
0.00974257 0.03845331 0.07203384
-0.02361649 0.03102642 -0.21095058
0.03191343 -0.01486922 -0.5011669
0.02958764 0.02817789 0.22126788
0.07254264 -0.00231684 -0.40057872
-0.02359536 -0.03867554 -0.01560969
-0.11952398 -0.00287274 -0.46698234
-0.10574147 -0.00437433 -0.46869743
-0.0040072 -0.04149237 -0.27376563
0.03556639 0.01359376 -0.04565712
-0.00036122 0.03759351 -0.16179071
0.03511116 0.01346422 0.28837648
-0.0340467 -0.02161515 -0.47583862
0.02802098 -0.02811184 -0.1902901
0.03720151 -0.00552816 -0.19562178
-0.03654211 0.00525806 -0.55890697
0.03483608 -0.01871948 -0.10610122
0.04554112 -0.00173535 -0.36966999
-0.00281542 0.03189303 -0.54893229
0.02422319 0.02556579 -0.30716741
0.03841887 -0.00862065 -0.04313263
-0.04213806 -0.01124528 -0.11604931
-0.04640041 0.00034388 0.21150553
0.01266078 -0.03568066 -0.50458243
0.01802188 0.02726831 0.31220571
0.03635289 -0.00584063 -0.27141222
-0.03419789 0.01004199 -0.55581418
-0.00779811 0.03908012 0.01879223
-0.02732613 -0.03056551 -0.40978201
-0.01348927 -0.03735305 -0.50378358
-0.02411687 -0.03975239 0.095293
-0.02796525 0.02843146 -0.15524364
-0.01679622 0.02850924 -0.53135715
0.04016487 0.00939640 0.2044585
0.04013547 0.00316287 0.11268857
0.02793883 0.02344229 -0.17560448
0.02085134 0.03210405 -0.010506
0.06925777 -0.00722017 -0.48106846
0.0818343 -0.00542022 -0.45410785
-0.00994226 -0.03920480 -0.41521004
-0.02193105 -0.04183565 0.19406134
-0.02404852 -0.01805782 0.34455898
-0.01513218 0.00552831 -0.42026401
0.03744565 -0.01523391 -0.00410159
-0.10090711 -0.00210298 -0.48281939
-0.03664913 0.01954663 -0.10950611
0.00216966 -0.04604906 0.19111828
0.0063323 -0.04501567 0.1454873
-0.03899825 -0.01010077 -0.42491116
-0.01672402 0.02739494 0.32394067
-0.01129053 0.04013398 0.26730549
-0.04363514 0.00011138 -0.05094968
0.01404143 0.03201596 -0.33521407
0.02533766 0.02161181 -0.47636575
-0.02782917 -0.03522504 -0.03078637
0.03807473 -0.00108643 -0.36832443
-0.04289045 -0.01451255 0.02254099
-0.00949148 -0.02890362 -0.41129396
0.0356446 -0.02435485 0.16879635
0.0021209 0.01197030 0.37271609
-0.04692155 -0.00327979 0.23454532
0.00886472 0.03251932 -0.4787606
-0.04370364 0.01140326 0.16326038
-0.03663718 -0.00222977 0.213213
-0.02664727 0.02612005 -0.40477342
0.05706779 0.00198672 -0.44143748
-0.0546779 -0.00759333 -0.44046317
-0.03337944 0.02836151 0.15303971
-0.00109216 0.03398601 -0.52291964
0.00475107 -0.03602914 -0.52688862
-0.0062617 0.03484580 -0.39770785
-0.04400982 -0.00324782 -0.03917499
0.04298004 -0.00091141 -0.37808012
-0.03304074 0.02870031 0.26769347
0.01593366 -0.04107515 0.213213
-0.02109109 -0.03125093 -0.52692991
0.02400076 -0.03734139 0.18645577
0.03913845 0.00171864 0.00125736
-0.01798575 0.03208794 -0.36141593
-0.03685779 -0.01439191 -0.51021517
0.03054678 -0.02431249 -0.2195282
-0.01963486 -0.03870300 -0.16308059
-0.00862079 0.04097302 0.2066057
-0.02569258 -0.03352025 -0.28190979
-0.05280158 -0.00852411 -0.45141349
0.02592987 0.01906935 0.31413929
0.00447324 -0.04589450 0.26220366
-0.06223867 0.00275875 -0.45459177
0.05572903 -0.00713815 -0.44127811
0.03604378 0.01144897 -0.08159723
-0.01078312 0.00584712 -0.41678859
0.01069653 -0.03661599 -0.49397345
-0.0096545 0.03901591 0.03565891
-0.03155279 -0.03557945 0.26156195
0.02446207 0.01856976 -0.51486001
-0.0066864 0.03431987 -0.44183878
0.01489297 -0.03826258 -0.19790293
-0.02749289 0.02777332 0.213213
0.01338019 0.03481895 -0.11391773
0.02102904 -0.03290631 -0.31785156
0.00673843 0.03295480 -0.54984875
-0.0057287 0.00734728 0.213213
-0.00042429 -0.02435290 -0.42026401
-0.01696783 0.03834420 0.14888803
0.03430224 -0.00544665 -0.46873776
0.03652031 -0.00647310 -0.24788021
-0.04302226 0.00025522 -0.10670372
0.01146704 -0.03705658 -0.42750885
-0.01969979 0.03302317 0.29681183
0.04086678 -0.00747222 0.172432
0.02378028 -0.03293135 -0.15746598
0.03382212 -0.00196526 0.31251249
-0.0359467 0.01173160 -0.50330053
0.03763709 -0.01028865 -0.46130378
-0.00846488 -0.04489408 0.10061944
-0.03515708 0.01505630 -0.4519199
-0.03595454 0.00450819 -0.52894408
0.09121136 -0.00482300 -0.45900942
-0.03531253 -0.02810296 -0.00675231
0.03414241 -0.01193914 -0.40350611
0.02855774 -0.02928192 -0.08255775
0.03227807 -0.02150710 -0.22886564
0.02536087 0.02831913 -0.03493081
0.02281739 0.03383763 0.23314764
-0.02689791 -0.03608495 -0.01986801
-0.02093334 -0.04087342 0.07375372
0.0389444 0.00104933 -0.02522734
-0.00861954 -0.04287973 -0.08658459
0.00916417 0.03257496 -0.46304449
0.02614926 -0.02456821 0.31213662
-0.03168906 -0.03464500 0.14803052
6.115e-05 -0.03664700 -0.52269585
0.03869697 0.00364735 -0.01634548
0.0356463 0.00713585 -0.25955243
0.01177061 -0.04183718 0.00160573
0.00071982 0.03153123 -0.52740732
-0.04103943 -0.00959293 -0.44973961
-0.01666921 0.03038013 0.31320908
0.02862073 -0.03419899 0.21669751
0.03596695 -0.01053238 -0.24964176
-0.03180593 -0.02614782 -0.38287334
0.02019581 0.03156249 -0.08895541
0.00502533 -0.04124702 -0.22440731
0.01258142 0.03249841 -0.34592291
-0.01637294 -0.04359946 0.1470061
-0.01054367 -0.04107405 -0.23231874
0.00652564 -0.03829499 -0.48300202
-0.03805557 -0.02778884 0.1812112
-0.01651253 -0.03617399 -0.49731425
-0.00686681 -0.04519240 0.27328796
0.03796345 0.00056740 -0.12325813
0.03354434 0.01445700 -0.19122343
0.02577004 -0.01974370 0.32478672
0.0018293 0.03360128 -0.55023603
-0.01025264 -0.03746362 0.213213
-0.02690937 -0.02956509 -0.50895109
0.01816514 -0.03631964 0.29739999
0.01633118 -0.03619110 -0.32695745
-0.01331608 0.03277373 -0.4706583
0.02249815 -0.03126559 -0.35644964
0.01759014 -0.02252531 -0.40885873
-0.00099583 -0.03110157 0.33917667
0.01553171 0.03657989 0.11807737
-0.00757757 0.04156775 0.24962629
0.0257941 -0.02911608 -0.29970244
-0.01745114 -0.03199169 -0.42026401
-0.01764251 -0.03967799 -0.15001728
-0.02316736 -0.03664996 -0.19236266
-0.00675063 -0.04393311 -0.0107588
0.00160321 -0.04668081 0.24347242
-0.0144681 0.03339640 -0.37445654
0.03709625 0.00863849 -0.09137215
0.03406574 0.02259073 0.23560998
-0.04478297 -0.00031105 0.05157622
-0.02084143 -0.03852368 -0.13503777
0.03273625 -0.01954705 -0.25980021
-0.00765948 0.04081101 0.17954392
0.01820258 0.03098946 -0.24684894
0.03119438 0.02026071 -0.11443152
0.01914823 -0.02902627 -0.55840785
-0.03978875 0.00514904 -0.34976066
-0.04049244 0.02005381 0.20836756
0.01705209 0.02882329 -0.47582785
-0.06200949 -0.00838276 -0.46298343
-0.04440967 -0.00828999 0.06067074
-0.01882826 -0.04356316 0.23286418
0.02906158 -0.02599113 -0.2343346
0.02155747 0.01590223 0.33350189
-0.03184579 0.01525731 -0.52270755
0.00593052 0.00230711 -0.41929011
0.00476405 -0.03824456 -0.52181589
0.03594821 0.00419195 -0.26760401
-0.03258598 -0.02899030 -0.16044886
0.05905013 -0.00274746 -0.38135359
-0.04390742 -0.00459186 -0.03218077
0.07005992 -0.00388280 -0.41420548
0.03425443 0.01428758 -0.13526003
-0.02021915 0.03672304 0.12499258
-0.03677921 -0.02588313 -0.02448152
-0.03462958 0.02174547 -0.13445724
-0.03820896 -0.00924719 -0.5435211
0.01331953 -0.03985507 -0.11562659
-0.03316577 0.01836720 -0.4390833
-0.08007075 0.00053699 -0.44824296
-0.04586223 0.00027636 -0.39366441
-0.05897758 -0.00576576 -0.41987552
0.02600581 -0.03121530 -0.15810606
0.0398407 0.00309832 0.08422323
-0.03789862 0.01137170 -0.34566115
0.01048339 -0.04090357 -0.1266894
-0.04226135 -0.00307592 0.29600663
0.00611938 0.03894675 0.04522115
-0.03927426 0.00818184 -0.34095394
-0.02921811 0.03100760 0.11034696
-0.00410852 0.04090165 0.14426046
-0.04437697 -0.00444725 0.01010842
0.02912023 0.02465641 -0.01696663
-0.02537945 0.02871843 -0.28268166
-0.0364828 -0.02466299 -0.11709474
-0.03657185 -0.01971086 -0.34187923
0.01663658 -0.04173150 0.16855128
-0.02041097 -0.00251500 -0.41548903
0.03438031 -0.00520936 -0.46434298
-0.033136 -0.02576509 -0.30500783
0.0277495 -0.02668901 -0.29267361
-0.04533102 -0.00530274 0.11023847
0.01092542 0.03469908 -0.21339415
0.02871324 0.01761096 -0.45342234
-0.03654669 0.01220168 0.3074627
0.02726716 -0.02771606 -0.26971606
-0.02938632 0.02207068 -0.52580489
-0.04047781 0.00502668 -0.28659412
-0.03008451 -0.02696879 -0.4648761
0.0390275 0.00567304 0.03971348
0.01685189 -0.03895582 -0.06635805
0.01248614 0.03864094 0.18790564
0.02523704 0.02329931 -0.38669859
0.03035363 -0.01266357 -0.51727206
0.10422375 -0.00053798 -0.47315239
-0.00368701 0.03177820 -0.52301476
0.08437017 0.00118037 -0.46946879
-0.03909593 -0.00030273 -0.43333684
-0.02552665 0.03048750 -0.14130412
-0.02595131 0.02793546 -0.30852744
0.03020671 0.01383891 0.31077333
0.00116416 -0.01846106 0.213213
0.02500399 -0.03027752 -0.28626708
-0.02529673 0.02576248 -0.54291866
-0.01446806 -0.04187789 -0.07258262
-0.08197195 0.00207329 -0.4737388
-0.0453521 0.00644568 0.18851218
0.07305602 -0.00406448 -0.42126757
-0.02556689 0.03561027 0.24566037
0.0306325 0.01270086 -0.52503895
0.02088728 0.00561698 0.34982293
0.01822208 0.03279712 -0.10995656
0.00671396 -0.04265220 -0.07166271
-0.01099562 -0.04243718 0.28894554
0.00328363 0.04074577 0.17915724
-0.02124881 0.02916191 0.30994046
0.041397 0.00249229 0.22281247
0.03497208 0.00004386 -0.41049074
0.02534919 0.02477454 -0.29330294
0.01577722 -0.04165016 0.13032278
0.04002337 -0.00659143 0.08238533
-0.00548279 0.03861315 -0.05360384
0.03813457 0.01167573 0.10946333
-0.02002266 -0.03589203 -0.39477537
0.03433529 -0.00560272 -0.46370769
-0.02897217 0.02081796 0.213213
-0.01009026 0.03992520 0.12637885
-0.02620869 0.02544226 -0.48097417
0.03395019 -0.02104618 -0.09929692
0.03902174 0.00325882 0.00933699
-0.03935455 -0.01669154 -0.20784205
-0.01164902 -0.04454337 0.10699695
-0.00486599 0.03690901 0.29705833
0.0313408 -0.01777296 -0.4461054
-0.05050248 -0.00039252 -0.39067316
-0.02467276 -0.03780170 -0.01915429
0.00433088 -0.01527533 0.213213
0.02865977 0.01172234 -0.55068168
0.00499055 0.03404104 -0.42915377
-0.03039351 -0.03216243 -0.11309079
0.00364035 0.02252137 0.34723956
0.0085851 -0.04357822 0.27986129
-0.03388527 -0.02581758 -0.24568802
-0.03503461 -0.02271406 -0.338261
0.03192365 0.02149764 0.01155775
-0.02513307 0.02624340 -0.48280765
-0.04186586 -0.01626745 -0.00350312
-0.03715987 0.01525108 -0.26968917
-0.03317649 0.02779977 0.10541486
-0.04418972 -0.00066277 -0.00845718
-0.02798232 -0.03850094 0.22406042
-0.00720168 -0.03918093 -0.45130034
0.00194857 -0.03639835 -0.52045254
-0.03745328 -0.02442250 -0.05804562
0.03050055 -0.02452534 -0.21073122
0.00867338 -0.02503413 -0.42026401
-0.03699534 0.01435968 -0.3163717
0.01242727 -0.04261294 0.09321354
0.01817758 0.00064788 -0.40772599
-0.0460738 -0.00113174 0.16260712
-0.04445174 0.00682387 0.10866502
-0.04187342 0.00916993 -0.07776633
0.02095855 0.03208924 -0.0054404
-0.03140688 0.03028808 0.18233444
0.02010076 -0.00233151 -0.40772599
0.01794485 -0.04170045 0.2612376
0.03042864 -0.02269170 -0.32183588
0.0090889 0.03717280 -0.06364499
0.03905792 -0.00417525 -0.03809804
-0.03248062 0.02702429 0.00844594
0.03252462 -0.02478413 -0.04375596
-0.00996646 -0.04249259 -0.10629358
-0.00777435 0.01478116 0.36630971
0.0415416 -0.00641580 0.22271501
0.03064181 -0.00854336 0.32241769
0.00738497 -0.04099051 -0.21936395
-0.04064282 0.00186570 -0.31016069
0.0359521 -0.01901261 0.00214244
-0.00890184 -0.04056716 -0.30017933
-0.04793996 -0.00997442 -0.48227496
-0.03946085 -0.02033357 -0.06657049
-0.01211022 -0.03228390 0.33025742
-0.002421 -0.01431845 -0.41410883
0.02880159 0.02561470 0.01444583
-0.0141957 -0.03741351 -0.47290017
0.01279856 -0.04123040 -0.01423142
0.0386217 0.01341053 0.2149
0.02884172 0.02277342 -0.14634022
0.01208711 -0.03824569 -0.30102782
-0.01039858 0.03495803 0.213213
0.02701235 0.02354484 -0.23925983
-0.03456419 -0.02880762 -0.02236687
0.00135478 -0.04345885 -0.06208355
0.02392961 0.03034411 0.03481182
0.03533594 0.01252561 -0.1045
-0.0105801 0.00124526 0.3853504
-0.04207939 -0.02234046 0.23515138
-0.04920703 -0.00070837 -0.38408994
0.02124136 -0.03867165 0.12735664
-0.03822413 0.01521357 -0.17796431
0.01419964 -0.04229830 0.12987599
0.00439349 -0.04558519 0.1750203
-0.04272084 -0.01515957 0.28034532
0.03050457 -0.02154336 -0.38232931
-0.0314344 0.02375260 0.213213
-0.01444883 0.03382883 -0.33733664
-0.00390959 -0.04311462 -0.12266869
0.01371961 0.03496121 -0.08917167
0.00795136 -0.02218780 -0.42026401
0.03374596 0.02037469 0.08367585
-0.04114595 0.01479724 0.27827149
0.01184966 -0.02411418 0.34668728
-0.02796944 0.02793714 -0.19212319
0.01703843 0.03753288 0.2559561
0.00622447 -0.04262320 -0.08042527
-0.01277341 0.01541619 -0.42019477
0.03914673 -0.00009427 -0.02036958
0.03364768 -0.02776310 0.21226508
-0.0256077 0.03131115 -0.07476
-0.02453717 -0.03696534 -0.08976562
0.02317559 -0.01464960 0.33996506
0.01288433 -0.04394935 0.2266979
0.01369636 -0.03640891 -0.40334964
-0.0345642 -0.03030743 0.06405338
-0.091218 -0.00370308 -0.43725526
0.0374251 -0.00382023 -0.19574645
0.03286913 -0.01819438 -0.29717458
-0.02859904 0.02382896 -0.46436948
-0.03641693 0.02187641 0.00733444
0.02142758 -0.03179206 -0.37857376
0.02020052 0.02852891 -0.31652854
-0.00258608 -0.00247076 -0.41587581
0.03178338 0.02225900 0.04489348
0.00453271 -0.04092911 -0.26032957
-0.03400529 -0.03288528 0.17060429
0.03329817 -0.02059546 -0.17266135
-0.02749798 0.02903058 -0.13715604
-0.02161995 0.02858445 -0.51410595
0.02048496 0.03010770 -0.18155901
-0.07062752 -0.00218140 -0.39411438
0.02824004 0.02261418 -0.20068912
-0.0107285 -0.04017329 -0.31458801
-0.01951518 0.01779270 0.213213
0.02496613 -0.02164740 -0.41212589
0.00933083 0.00427043 -0.40802772
-0.01714766 0.03634178 -0.019746
-0.04536306 -0.01337708 0.21305309
-0.005903 0.04134744 0.20823213
0.03619514 0.01370636 0.01340737
0.01737318 -0.03315818 -0.52496388
0.03546424 0.00664867 -0.28266211
0.06519936 0.00305739 -0.46912447
0.02029602 0.03467128 0.15045834
-0.04587083 -0.01199385 0.24357517
0.0474535 -0.00394927 -0.38212633
0.00213479 0.03134482 -0.55826948
-0.0275869 0.02470102 -0.45719595
0.01823422 0.03202149 -0.16751283
-0.01095894 0.03543169 -0.28467048
0.01935008 0.03071824 -0.20109795
-0.03125412 0.02834701 0.02786888
-0.04325815 0.00865416 0.02467034
-0.02304625 -0.04130585 0.18811612
0.0039644 0.03110378 -0.52414625
-0.02238331 -0.04010794 0.05933507
-0.0051999 0.03505964 -0.39075858
0.03742781 -0.01232539 -0.09036754
-0.04055931 -0.00184522 -0.35957773
-0.01088824 0.03304595 -0.51498749
-0.02324017 -0.03250759 -0.49927689
0.03644097 -0.01623605 -0.05568518
0.03795551 -0.00899359 -0.08201426
-0.01983729 0.01490129 -0.41410529
0.01629854 0.03490763 -0.00039027
0.00527509 0.04054490 0.1848646
0.00967799 0.03683181 -0.07210857
0.03956281 -0.01097770 0.09336654
-0.00014685 -0.04004791 -0.40086079
0.03885679 -0.01072319 0.28082065
-0.03976326 -0.00276768 -0.39970125
0.00551317 0.03744228 -0.10347815
-0.00340753 -0.04404828 -0.04121158
0.01468846 0.03644657 0.27711037
0.03809804 -0.01948415 0.20694189
-0.002421 0.01294387 -0.41744123
0.00124064 0.02357584 0.34528944
-0.01958296 -0.03846194 -0.18603555
-0.04060734 0.01567508 0.04719718
0.01205216 -0.03588625 0.31092319
-0.04346784 -0.01877509 0.22746384
0.02914068 -0.02301596 -0.39990045
0.0030953 -0.04623161 0.21971071
0.02262261 -0.03554584 -0.027815
0.02512985 0.03176940 0.21115446
0.03643984 0.00176733 -0.25143171
-0.03792629 -0.01139494 -0.5415417
-0.03407165 -0.02913708 -0.04038408
-0.04444185 0.00086217 0.03405224
0.00416431 0.03260876 -0.55890697
0.0093831 0.03758840 -0.01663499
0.02420849 -0.02784278 -0.49217869
0.02493515 -0.02922304 -0.35805998
0.00666143 0.03655127 -0.17291011
0.01242258 -0.03772868 -0.3340888
-0.02023207 0.03498833 -0.02627791
-0.04133636 0.00422223 -0.21594215
-0.00421562 0.03410660 -0.49241558
0.01674835 -0.03548323 -0.37088237
-0.04308734 -0.01000417 -0.04227544
0.08194436 -0.00519834 -0.45099524
-0.03079859 0.03121575 0.21726671
0.03293444 -0.01482110 -0.4136099
0.00074621 -0.04160410 -0.24372948
-0.02598091 -0.02583947 0.213213
0.03022968 -0.00251500 -0.41906139
-0.051223 -0.00160233 -0.37388458
-0.002421 -0.00512468 -0.41091031
-0.0303511 -0.03662503 0.21965227
-0.01091615 -0.00742004 -0.4147458
-0.04142615 -0.00314204 0.30050627
0.013975 0.02767213 -0.5402173
-0.09035186 -0.00443694 -0.44679827
-0.0114682 0.03129398 0.31820403
-0.03859147 -0.02652873 0.14886168
0.01368488 0.03194236 -0.35456976
0.03482096 -0.00493304 -0.42640818
-0.04102619 -0.02165979 0.1184289
0.02415429 -0.03806868 0.25018895
-0.00201703 -0.04235231 -0.20762105
-0.03937651 0.00084447 0.30782248
0.0287098 0.01160158 -0.55597349
-0.05884483 -0.00991626 -0.48091559
-0.03722823 0.01632677 -0.22474238
-0.01334199 -0.04061573 -0.22377481
-0.02029171 -0.03186448 -0.54920749
0.02313272 -0.02953268 -0.45003743
-0.04257916 0.00046301 -0.3915506
-0.00399316 0.03813360 -0.11705034
-0.04378136 0.00042812 -0.03331124
-0.02781335 -0.03874513 0.23269696
-0.04523997 -0.00243155 0.06827435
-0.06380451 -0.00266847 -0.3813361
-0.00287535 0.03682287 -0.25394333
-0.0219537 -0.02346567 0.33923494
-0.03852458 -0.02083053 -0.1304728
-0.04008801 -0.01652526 -0.14969915
0.02740002 -0.03192601 -0.01718205
0.02394379 0.02860726 -0.09494521
0.02796603 0.00560506 0.33033483
-0.0034596 0.03585572 -0.3375293
0.00339612 0.03463297 -0.39330586
-0.0704118 -0.00737777 -0.4606164
-0.02412782 -0.03187432 -0.49571435
0.00962588 -0.04529398 0.2262788
0.03776076 -0.00783929 -0.11456028
-0.03846273 0.02316287 0.23520344
-0.01404158 0.03531793 -0.22186526
0.0061423 -0.03968585 -0.35716986
-0.01451803 0.03521247 -0.21382353
0.0385667 -0.01406744 0.05170947
-0.07486149 -0.00008565 -0.43132728
0.02361429 0.03242883 0.17330015
0.01903172 0.03093048 -0.20350192
0.02008588 0.03397723 0.08616005
-0.01016573 -0.04044265 -0.29625487
0.02438562 0.02856044 -0.0730033
-0.0591771 -0.00645989 -0.43041259
-0.04313712 -0.00072907 -0.10808273
0.0078626 0.03779103 -0.04170882
0.0652369 0.00039831 -0.42995061
-0.10753749 -0.00008171 -0.47984433
0.03667401 0.00939314 -0.10095979
-0.00712044 -0.03857163 -0.52187317
0.0250104 -0.03630756 0.26658098
0.01773216 -0.03523166 -0.3331113
-0.00243106 -0.04516590 0.05166108
0.03880257 -0.00981416 0.00763141
-0.0600061 -0.00431165 -0.39994672
-0.03783369 0.02051856 0.03546832
-0.04551295 -0.00843551 0.1660423
0.03437707 0.01413941 -0.12990237
-0.00159244 0.03527397 -0.39477397
0.0002584 -0.04312118 0.28951454
-0.00871668 0.00838962 -0.41032755
0.03027989 -0.02591444 -0.14723173
0.00674983 0.03788361 -0.04677326
-0.04116591 -0.00551759 -0.27808624
-0.04523805 -0.01102667 0.17226486
0.03613692 -0.00434562 -0.37142475
-0.04415543 0.00752137 0.0894704
0.02677069 -0.03342714 0.05208989
-0.03605352 -0.01633454 -0.52877477
-0.03268079 0.02344313 -0.18296151
0.03312517 -0.01136480 -0.50604163
-0.10533287 -0.00202958 -0.4478236
0.03475376 -0.01064066 -0.36217527
0.01796864 0.02972608 -0.3552192
0.0271938 0.01084003 0.32606138
0.03397785 -0.02668631 0.17502629
-0.01979383 -0.04185023 0.11791762
0.05047471 -0.00456046 -0.39556224
0.0386913 0.00445422 0.28286307
-0.0153441 0.03148930 -0.53223811
0.01810247 0.03037700 -0.2986183
-0.01345853 0.03997303 0.26595655
-0.04122379 -0.00851004 0.29801043
0.03962357 0.00943358 0.15846638
-0.01465794 -0.04461949 0.17410394
-0.02151624 -0.03092463 -0.51773433
-0.01404423 0.03450630 -0.29275055
-0.00065903 -0.03895815 -0.53566186
0.02871582 -0.01661705 -0.53977455
0.03768371 0.00098044 -0.14441067
-0.00902624 -0.04110337 -0.24830913
-0.01938391 0.00595130 -0.40772599
0.03190838 -0.00153787 -0.51894721
0.00142165 0.03682868 -0.2116097
-0.02272378 -0.03697966 -0.19316159
-0.04247588 -0.01502479 0.00483421
0.00473447 -0.04635997 0.25206649
-0.01222306 0.03610872 -0.20553554
0.00565303 -0.01807405 -0.40772599
0.01967111 -0.04055596 0.17839927
-0.03346437 -0.03024638 -0.022086
-0.05138427 -0.00810293 -0.44309746
-0.09254332 -0.00574265 -0.46931283
-0.04005174 0.01103165 -0.16963724
-0.02962168 -0.02845265 -0.41411361
-0.02555099 -0.02564499 -0.41018997
-0.01102785 -0.04382799 0.03216723
0.00929084 0.03537147 -0.21385157
-0.00842472 -0.03904952 -0.44852904
-0.04393992 0.00469165 0.03426534
-0.03702799 -0.01973723 -0.30101838
-0.03681136 -0.01678196 -0.42706264
-0.01186682 -0.04516418 0.16796822
0.02401073 -0.03800445 0.23702334
-0.03686134 0.01537065 -0.29146821
-0.03443019 0.00036381 0.213213
-0.02309896 -0.03304771 -0.46683433
0.01820627 0.02471913 -0.5192513
-0.00993262 0.02993161 -0.41835486
-0.0165801 0.03759577 0.06935977
-0.02183346 -0.03985494 0.01729266
0.03734026 -0.01659716 0.03605864
0.03406514 -0.01071211 -0.42592521
0.05345366 -0.00525707 -0.41019676
0.01847402 -0.03655165 -0.19125708
0.0038356 0.03785729 0.213213
0.03990604 -0.00306681 0.28056908
-0.02754937 0.02785535 -0.22245159
0.0293846 -0.02953341 -0.00595921
0.01095012 0.03356428 -0.31177611
-0.03852326 -0.00685909 -0.52994203
0.06409369 -0.00612756 -0.43860021
0.01275016 0.03640056 0.00155454
0.03945244 0.00125944 0.02505474
-0.02894439 -0.03269772 -0.15636216
-0.04289912 -0.01379697 -0.00263134
-0.0479169 0.00271585 -0.43271915
-0.01310149 -0.02752611 -0.42026401
-0.09168896 -0.00614749 -0.47401888
-0.01675267 -0.03885473 -0.25425158
-0.06655754 -0.00044977 -0.41363789
0.06898002 0.00329900 -0.47821772
0.01354656 -0.03809336 -0.26145077
0.03307548 -0.02780067 0.17144941
-0.04000912 -0.01955136 -0.04694791
-0.02301187 -0.04018973 0.08926154
-0.01260927 0.03852427 0.02595202
-0.03770237 -0.01782001 -0.31149293
0.03520139 -0.01347224 -0.26418047
0.00541146 -0.03204625 -0.40772599
-0.04448274 -0.00578537 -0.39866882
-0.03855083 0.00394641 -0.48077117
-0.0410417 0.01377840 0.01647896
0.03677296 0.01543369 0.12650518
-0.03790226 -0.01157751 -0.54897369
0.02260936 -0.03742446 0.11251606
0.03538962 0.01009180 -0.18797715
-0.01003724 -0.04027972 -0.31313594
0.00054444 -0.04062593 -0.33805519
0.0094961 -0.04347798 0.06269172
-0.01248247 0.03856265 0.02799026
-0.0373736 0.01171749 -0.37905346
-0.032895 -0.02253221 -0.53800572
-0.0712226 -0.00343554 -0.40365456
-0.02589122 -0.03043208 -0.50247433
-0.04923094 0.00303806 -0.43942387
0.03861221 -0.01930325 0.24531983
-0.00312406 0.03914609 -0.03272889
0.00305241 0.03756347 -0.12249878
0.0136161 -0.04355155 0.21836069
-0.03394787 0.01635284 -0.49643204
0.0116122 0.03128100 -0.48750607
-0.03280383 0.01429716 0.31906132
0.0311782 0.00400938 -0.51960921
-0.03473941 0.02357686 -0.02063527
-0.02487982 0.03100654 -0.13960772
0.03489648 -0.00949931 -0.36288769
-0.02689816 0.02813047 -0.23928873
-0.03106678 -0.03313962 0.28246665
0.00453501 0.02344428 -0.40970338
-0.04034496 -0.00156925 -0.38055561
0.03785192 0.00237754 -0.1113562
-0.02052874 0.01429463 -0.42026401
0.05848423 -0.00607805 -0.42966645
0.04177154 -0.00726962 0.2564654
0.10142199 -0.00151001 -0.45471496
-0.03990538 0.01433010 -0.06292112
-0.0300041 -0.02657292 -0.4937406
-0.01784661 -0.03632915 -0.43540953
0.03460679 -0.00556084 -0.43874877
0.03804336 0.01146019 0.0936797
0.00281955 0.04035225 0.13648204
-0.00663761 -0.03905176 -0.47039299
0.03573366 -0.00342702 -0.3593693
-0.019015 -0.02580880 -0.42026401
-0.00650518 0.03949788 0.04205864
-0.02276669 -0.03711939 -0.18019743
0.03529863 0.01908641 0.12987809
-0.02743286 -0.02915638 -0.52377279
0.02799058 0.01333768 -0.54739857
-0.00768172 -0.04642996 0.23509511
-0.00514786 -0.04413533 -0.01155762
-0.00342884 0.03121823 0.32238831
0.00356865 -0.04101048 -0.26459229
-0.00237406 0.03834944 -0.11564511
0.01250286 0.03461017 -0.16398147
-0.01316807 0.03962887 0.13652157
-0.03586159 0.01738372 -0.29329867
0.04539612 0.00255313 -0.48131467
-0.04529949 0.00024482 0.10693321
0.03209043 0.01090814 -0.44695944
-0.00063351 0.03450212 -0.45539053
0.0098571 0.02009981 -0.42026401
0.04155803 -0.00764957 0.25823424
-0.03951752 0.00947600 -0.27276145
-0.03829356 -0.00860436 -0.52273973
0.02818815 0.02949773 0.21678667
0.00667763 0.02584420 0.33533173
0.03662238 0.00893475 -0.12208286
0.02376876 -0.03342417 -0.12111639
-0.02620529 -0.03957627 0.20238448
-0.01556917 0.03369142 -0.30875575
-0.07730438 -0.00623346 -0.4539549
-0.04079697 -0.00725476 -0.29125435
-0.04169665 0.00865064 -0.11205429
0.02979585 -0.01979200 -0.50812021
0.05402555 0.00009361 -0.40905991
-0.03890298 -0.00105590 -0.53667986
0.03745374 -0.00622016 -0.16339253
-0.02862584 0.02306174 -0.52760427
-0.00106887 0.02812286 0.33244463
-0.0093764 0.03354318 0.30966054
-0.00448383 0.03744050 -0.17606162
0.01239791 -0.02818253 -0.40968952
-0.0386965 -0.01547280 -0.30957811
0.01710794 0.03200704 -0.22488636
-0.00431422 0.00076420 -0.41550549
3.89e-06 -0.04363749 -0.0619984
0.03947427 0.00413882 0.06268776
-0.00083505 -0.04368926 -0.06750268
0.03672276 0.01850781 0.23351121
-0.03171351 -0.03310671 0.03389832
-0.00121807 -0.04552235 0.09986193
0.02105453 -0.03054663 -0.49358794
0.03475467 0.01744439 0.02283109
0.0297962 -0.02728207 -0.10475254
0.03733034 0.01284822 0.08160091
-0.04210144 0.00913996 0.28630602
0.01780127 -0.02933170 0.213213
0.02842959 -0.02204144 -0.54394274
0.00199229 0.00140895 0.39109603
-0.02431905 -0.03849070 0.01220385
0.01831404 0.03411827 0.0034614
-0.07451821 0.00257581 -0.4701022
-0.02837258 -0.02842579 -0.52501025
0.02825213 0.01723871 -0.5186356
0.02869575 0.02473526 0.28533438
-0.00455309 0.04049759 0.11181799
0.03529966 0.01499362 -0.01827793
0.03590236 0.00921606 -0.17486164
-0.0315289 0.02037577 -0.44626265
-0.03674219 0.02510683 0.21799719
0.01497759 0.03763097 0.18990652
0.02440649 -0.01896723 -0.40772599
-0.02001167 -0.03687434 -0.30929633
0.11183156 -0.00319275 -0.46511138
0.01955356 -0.03602238 0.29357666
-0.0129881 0.03664326 -0.14413483
0.0355701 -0.01867439 -0.04352654
-0.02206431 -0.03868486 -0.07663585
-0.03891692 -0.00755358 -0.46402641
-0.02569153 0.01547767 0.33622923
0.02474688 -0.03347450 -0.0609739
0.03356402 0.00272389 -0.54353801
-0.05046896 -0.00972265 -0.46563755
-0.01900408 -0.04314431 0.20250416
0.03561131 -0.00727059 -0.41381191
-0.00609428 0.04043022 0.12450043
-0.02333877 0.01753076 0.33828318
-0.01087675 -0.03924707 -0.39969943
0.02272793 -0.00251500 -0.40870106
-0.04004551 0.00643347 -0.30979194
-0.02459827 0.02906366 -0.3017869
-0.03101826 -0.00755162 0.33757334
0.00319925 -0.04199559 -0.17667599
-0.03434066 0.01672242 -0.44563424
-0.04089299 0.01038554 -0.11946709
0.03630194 -0.00469764 -0.29032402
-0.02787777 -0.02957481 -0.45242954
0.03980791 0.00526213 0.27340936
0.03970365 -0.00352630 0.01449073
-0.03417854 -0.03213241 0.1402383
0.03556747 0.00429726 -0.30203725
-0.04087601 0.00279215 -0.27682493
0.09429645 -0.00086722 -0.45377745
-0.09374496 -0.00056042 -0.45232393
-0.04088286 0.00821632 -0.19898712
0.03548085 -0.02229920 0.07999463
0.00027753 -0.00718907 -0.41749524
-0.0570947 -0.00733918 -0.44029765
-0.01713165 0.03601414 -0.04898603
0.01883425 -0.03563447 0.29825382
-0.03981447 -0.00371989 -0.4271599
0.02970609 0.01615374 -0.46283416
0.0088016 -0.03742633 -0.49178379
-0.03056336 -0.03455488 0.07641158
0.04006567 0.00713934 0.15527857
-0.03886477 -0.01196832 -0.41436917
-0.04257782 0.00189138 -0.41263178
-0.04187773 -0.01095355 -0.14409459
-0.00619956 -0.04465694 0.05039488
0.03019456 -0.01304754 -0.54471537
0.03593218 -0.01898811 -0.00048734
-0.02874543 0.01929694 -0.55514411
-0.03832788 -0.01038982 -0.48425809
0.01342196 0.03818189 0.1816881
-0.05994207 0.00323932 -0.48239834
-0.04109799 -0.01170930 -0.20795178
0.03400474 -0.02134660 -0.08364082
0.00626478 0.00250011 -0.41965774
-0.00367462 -0.04244809 0.29486302
0.06985089 -0.00370576 -0.41128759
0.02514203 0.01785951 0.32007614
0.01369146 -0.03637126 0.213213
0.01664198 0.03362267 -0.10047848
-0.0267793 0.02922588 -0.16386833
0.01318585 -0.03995704 -0.11155068
-0.00066252 0.04043449 0.27418141
-0.04541185 -0.00406212 0.10249342
0.02921628 0.01686357 -0.45871359
0.0677446 -0.00653998 -0.45002426
-0.02820957 -0.00251500 -0.41175834
-0.03147454 0.02584010 -0.13538226
-0.03924801 0.00822718 -0.34160701
-0.05338967 -0.00010245 -0.39923638
0.03516962 0.00627406 -0.47266344
-0.0439293 0.00305183 0.01300017
0.03136931 0.01676140 -0.29796667
-0.01665827 0.03421644 -0.22337322
0.03189155 0.01392410 -0.35506905
0.02053488 0.02043994 -0.40784296
-0.04360103 -0.00630816 -0.03973527
0.02302441 -0.03495950 -0.04869854
0.03900166 0.01122627 0.16901256
0.02036956 0.02027463 -0.41395793
0.0032975 0.04072502 0.17737926
0.01225027 0.03951758 0.25611071
-0.07628898 0.00257019 -0.47264524
0.02448666 -0.03466781 0.01365588
0.03243731 -0.01758787 -0.35690486
-0.04207351 -0.00381981 -0.36609571
0.03426447 0.01274841 -0.19013304
-0.03710153 -0.02482524 -0.06125395
0.03265192 0.02197774 0.09394129
-0.01280352 0.03524326 -0.27325976
-0.00170932 -0.03688024 -0.52759489
-0.11244061 -0.00320154 -0.48293774
0.03687176 -0.01556801 -0.04219734
0.00081073 -0.00064902 -0.41623394
-0.00616675 -0.01649498 -0.41303749
-0.01172702 0.03915172 0.07396425
-0.04534352 -0.00933386 0.16124048
0.03233126 -0.02867750 0.16606544
-0.0612222 -0.00926056 -0.47476701
0.03717429 0.00328607 -0.16372613
0.04082354 -0.00881450 0.18496235
0.01211969 0.03152595 -0.44769677
0.00472636 0.03989544 0.11711306
-0.02955256 -0.03749484 0.23905806
0.03470446 -0.00998493 -0.37490837
-0.03629318 0.00707251 0.31705665
0.02144266 -0.02766699 -0.55890697
-0.00230475 -0.04453626 -0.00613903
-0.04178929 -0.02073114 0.2683852
-0.04127605 0.00405062 -0.22372451
-0.00574827 0.04081217 0.15608373
0.00596197 0.03571476 -0.26006404
0.03590637 -0.00187368 -0.34650602
-0.00669954 -0.04387263 -0.01706784
0.02823404 0.01938778 -0.38702259
-0.04429405 -0.01734054 0.24769415
