# .PCD v0.7 - Point Cloud Data file format
VERSION 0.7
FIELDS x y z
SIZE 4 4 4
TYPE F F F
COUNT 1 1 1
WIDTH 1412
HEIGHT 1
VIEWPOINT 0 0 0 1 0 0 0
POINTS 1412
DATA ascii
-0.23408444 -0.08090594 0.31700634
-0.09862336 0.01143948 0.31016001
-0.107333 0.11409194 -0.02689278
-0.10412482 0.12339600 0.06597408
0.02176742 0.07987700 0.14978464
-0.00137752 0.12339600 -0.01735485
0.08982499 0.12339600 -0.05034801
0.1726575 -0.02963400 0.30969249
-0.16904099 0.00074726 -0.35128392
0.04388786 0.07987700 0.37284862
0.25109197 0.06175713 0.33789664
-0.19338363 0.07569922 -0.27814794
-0.29396001 0.04436512 -0.31074606
-0.04953228 0.07987700 0.13250537
0.124659 0.10849818 -0.12593987
0.00997773 0.07987700 0.33800525
-0.26677976 0.07953281 0.30427971
-0.23764529 0.03049388 0.36522805
0.0151732 0.07987700 0.10937754
-0.1833658 -0.02756997 -0.20948743
0.04090043 -0.03704500 -0.31407593
-0.0350705 0.12339600 0.19413059
0.306218 -0.05736557 -0.25391994
-0.0290687 0.05262762 0.26257199
0.12257587 -0.02519736 -0.26876301
-0.23086031 0.02195700 0.30694802
-0.09723666 0.12339600 -0.35849629
-0.06792124 0.07987700 0.3415444
-0.06708136 -0.03704500 -0.31374363
-0.0864406 -0.00541394 -0.26876301
-0.107333 0.07992018 -0.1600362
-0.04024591 0.12339600 0.01396025
-0.08383108 0.07987700 -0.3277672
0.21927327 0.01428663 0.19959426
0.1737519 0.01728469 0.31016001
0.01259088 0.01820000 -0.32074454
0.06508041 -0.03704500 -0.30027468
0.28644151 -0.01769211 0.36883085
0.03863405 0.07987700 0.21004406
0.0287631 0.12339600 -0.02239779
0.306566 0.04116637 0.22257797
-0.27116958 0.05634352 -0.23847081
-0.05106922 0.07987700 -0.19230192
0.18630638 0.01302232 -0.26876301
-0.02427687 0.08583237 -0.37954199
0.00055597 0.07987700 0.08358109
0.06052877 0.12339600 -0.1597581
0.17660201 0.04555275 -0.24767114
-0.107333 0.08964986 -0.27246817
0.22900926 -0.02963400 0.2983345
-0.107333 0.08366315 0.10447884
0.2865853 -0.05259823 -0.37353051
0.17660201 -0.02427038 -0.23687806
-0.29396001 -0.03283557 -0.31585048
-0.05645197 0.07987700 -0.12386797
-0.18998073 0.03296715 -0.21841211
0.0564033 0.09620561 -0.37954199
-0.04597154 0.12339600 -0.3506818
-0.08637563 0.12339600 -0.02966814
-0.02580612 0.07987700 0.05259731
0.17824601 -0.00869231 0.23299389
0.30298986 0.01535629 -0.37974806
-0.18388916 -0.07225507 0.33420124
0.14864337 -0.01684015 -0.26876301
0.00140323 0.07987700 0.02946146
0.21500414 0.02679166 0.36362859
-0.04777548 0.07987700 0.24619742
0.306566 0.00502934 0.21331942
-0.16904099 -0.00206063 -0.26868247
0.08029476 -0.02963400 0.28256161
0.04090321 0.01148848 0.31016001
-0.16772916 -0.01910488 0.26257199
-0.22507787 -0.08631761 0.28735502
-0.2732316 0.00836101 0.20530704
-0.08989306 0.07987700 0.05552611
-0.01515193 0.01820000 -0.31330575
-0.23677052 0.07586846 0.25919402
-0.0557724 0.07987700 0.04514162
-0.107333 0.10255705 0.1026155
-0.25112102 -0.01803421 0.20568466
-0.22514417 0.01127158 -0.38064291
-0.26142565 -0.08230283 0.31304393
0.17660201 0.03487799 -0.29648953
-0.01743016 0.07987700 -0.20280421
-0.29427299 0.02237953 0.35356645
0.17045959 0.02195700 0.30136273
-0.09193162 0.12339600 0.3332379
0.27997451 -0.07603624 -0.23678455
-0.12515001 -0.03704500 -0.28948145
-0.00415352 -0.02963400 0.26257382
-0.06450989 0.02195700 0.26325532
0.04437471 0.01820000 -0.31851574
-0.18450521 0.02195700 0.30672781
0.26414816 -0.08333557 -0.24629694
0.25609124 0.04428567 0.2132734
-0.06702279 0.12339600 0.30080212
0.124659 0.11194015 -0.33542233
-0.16904099 0.04158421 0.35362579
0.306566 0.05357029 0.33733629
-0.01182069 0.10019660 -0.37954199
0.09420794 0.01820000 -0.29715354
0.306218 -0.01096076 -0.362617
0.22742583 0.07376381 0.24944516
0.12434409 0.12339600 0.2900511
0.0346451 0.07987700 0.28831881
0.04030698 0.12339600 0.28576925
-0.107333 0.10646658 -0.01389507
0.01525935 0.12339600 -0.06180182
0.12249594 -0.02963400 0.30822407
0.2875808 0.05594993 -0.35235552
0.03811638 0.07987700 -0.27341581
0.06107491 0.12339600 -0.19246133
0.11870339 0.12339600 -0.24483501
0.124659 0.08925658 0.11056186
-0.17906328 -0.05538190 -0.21960296
-0.00114817 0.12339600 -0.10994173
0.0373522 0.07987700 -0.14281749
-0.05135569 0.01820000 -0.31841569
-0.10495641 0.07987700 -0.02841794
0.1834706 -0.09781195 -0.28386955
0.25542241 -0.08403267 -0.24720539
0.20542237 -0.02963400 0.30226056
-0.107333 0.08037096 0.18308344
0.0466563 0.07987700 0.37682675
-0.08237225 0.07987700 0.18444567
0.13178013 -0.00109151 0.26257199
-0.22936171 0.07266897 -0.32372354
0.17824601 0.04664658 0.22569886
-0.08925735 0.07987700 -0.03971732
-0.18738046 0.07203254 -0.26516613
0.09708293 0.02110553 0.26257199
0.05294715 0.07987700 0.38282114
0.306566 -0.01613911 0.31860858
-0.12632337 -0.03704500 -0.28351176
-0.05298411 0.11863828 -0.37954199
0.30357613 -0.02963400 0.27334314
0.10870043 0.07987700 0.25851261
0.02484846 0.07987700 -0.04881553
0.01066559 0.07987700 0.37759451
0.20094621 0.02195700 0.29637233
0.27105345 -0.01231749 0.36953865
0.23917073 -0.00479658 0.37045288
0.11709909 0.12339600 0.09610068
0.09420372 0.12339600 -0.34280276
0.306218 0.02946991 -0.25371091
-0.16904099 -0.05176832 0.22477324
-0.05121486 0.07987700 0.25511955
0.124659 0.11005998 -0.02765251
0.25579922 -0.05461531 0.21339462
0.09122453 -0.03704500 -0.30264672
0.306566 0.06391055 0.33319502
-0.29427299 -0.03678579 0.33797071
0.10730594 0.07987700 -0.19070533
0.22531027 -0.01230855 -0.38409902
-0.0469512 0.12339600 -0.36932279
0.25596772 -0.09580903 -0.32023511
-0.16904099 0.05255944 0.24582287
0.017949 0.02514784 0.30629479
0.08398378 0.12339600 -0.3518073
0.2980771 0.04302930 -0.22718073
-0.24508466 0.06928255 -0.33219534
-0.10350755 0.12339600 0.34855518
0.15475909 -0.02903376 -0.26876301
0.306566 0.04460654 0.28462508
0.2537485 0.07110758 0.3245009
-0.18599992 0.06837216 -0.33447286
0.306218 -0.03372083 -0.33657077
-0.17858285 0.01893183 0.20728021
-0.26979651 0.07425440 -0.27034646
-0.16904099 -0.05991491 0.3406819
0.306566 0.05168563 0.22604109
0.08654109 -0.03704500 -0.29487232
-0.05563022 0.01820000 -0.26939121
0.09723662 0.07987700 -0.03117151
-0.29396001 -0.01586836 -0.34689529
-0.09285593 0.07987700 0.07730614
0.07602227 -0.02908709 0.26257199
-0.08369961 0.12339600 -0.05169107
-0.08700129 0.07987700 -0.07943792
0.09291136 0.12339600 -0.08126452
0.17824601 0.00591755 0.33218546
-0.1087255 -0.02963400 0.28343447
0.26229342 0.05387815 0.22063398
0.19800769 0.02195700 0.2968071
-0.0306014 0.07987700 -0.15496142
-0.27498298 0.07196598 0.24909497
0.17660201 -0.01520942 -0.2396738
0.23010244 0.06985513 -0.26271175
0.306218 -0.06506493 -0.33288656
-0.03098882 0.12339600 -0.32316906
0.04334389 0.02195700 0.27742474
0.02798143 0.12339600 -0.11401015
-0.030346 0.07270024 -0.29524673
0.10236389 0.12339600 0.2489462
-0.19350097 0.02195700 0.29892565
-0.09654922 -0.02340626 -0.26876301
-0.17604525 -0.07105039 -0.2319381
0.124659 0.08688627 -0.05115277
-0.10767531 0.02195700 0.27021411
0.124659 0.11666613 0.3101126
-0.29024268 -0.06912485 0.33876969
-0.27742389 -0.05087284 -0.37330638
0.02694726 0.12339600 0.2262758
0.17824601 0.00186166 0.24592693
-0.21273443 -0.03299500 -0.21027063
0.03615535 0.07987700 0.12830879
0.03143245 0.07987700 0.12391284
-0.20365509 0.00494283 0.26257199
-0.11101948 0.00334882 0.31016001
-0.107333 0.09161790 0.07062609
-0.2393425 0.06955441 -0.25938829
0.026372 0.12339600 -0.13568834
0.28621283 0.00480945 -0.32355201
-0.07072869 0.00794395 -0.26876301
-0.27057679 0.05797637 0.34612855
0.08149587 0.07987700 0.11039883
-0.02171353 0.02195700 0.30678562
0.13023525 0.01820000 -0.31271889
-0.19203021 -0.04596382 0.36006094
-0.22840064 0.01960795 0.36906626
-0.0346575 0.00948501 0.31016001
0.04940359 0.12339600 -0.35643768
-0.21992493 0.05982486 0.34397025
-0.05176989 0.12339600 -0.36997731
0.07944736 0.12339600 0.28520136
0.08853879 0.12339600 -0.1483175
-0.1733368 -0.09682703 -0.28307443
-0.107333 0.09438266 0.05344269
-0.08680084 0.07987700 0.2957607
0.28186163 0.02797445 0.3631387
-0.06562706 0.07987700 0.19354542
0.03576462 0.12339600 0.01687214
-0.22544978 0.01864185 -0.21268469
0.18371795 0.07560658 -0.30786673
-0.04725129 0.12339600 -0.07211116
0.09159071 -0.00937514 0.26257199
0.05865179 -0.01103211 0.31016001
0.306566 0.03480815 0.34457526
0.00944662 0.07987700 0.2602033
-0.29427299 0.02685984 0.24177509
0.01667668 0.01820000 -0.29333163
0.25746221 0.07870049 0.2614519
0.01096597 0.12339600 0.1384137
0.01131088 -0.03114160 -0.32355201
-0.20272769 0.07580107 -0.27885363
-0.06800163 0.12339600 0.19951053
-0.16904099 0.05225200 0.2708633
-0.07374827 0.10261687 0.38343701
-0.29343041 -0.08276673 0.26323325
-0.0324019 0.12339600 0.3394927
0.22345811 -0.02408209 0.26257199
-0.18677571 -0.08214982 -0.24551366
-0.02224554 0.12339600 -0.23255473
-0.29414408 -0.05466627 0.35354668
0.14688531 -0.02963400 0.30308042
-0.14327484 0.01820000 -0.27771369
0.04820903 0.07987700 -0.08324997
-0.11632931 -0.02963400 0.26698295
-0.017082 0.01846574 0.26257199
0.26773831 0.07454230 -0.31595179
0.01134591 0.12339600 0.0582378
-0.22194977 -0.08498024 0.3046493
-0.29396001 -0.03419290 -0.29776578
-0.01289283 0.01820000 -0.27824817
0.25096864 0.01795283 -0.37867256
0.0848045 0.07987700 -0.27583037
-0.21075084 0.01176533 -0.20993607
0.04406506 0.07987700 0.1253218
0.09988175 0.12339600 0.07252107
-0.09420286 0.07987700 -0.36442308
0.09412948 0.07987700 0.21679203
0.27983077 0.01673282 -0.32355201
-0.00247768 0.02328404 0.31016001
0.03492508 0.12339600 -0.25717141
-0.22098858 -0.05186278 -0.21805008
0.11974238 0.07987700 0.15522224
0.0167691 0.12339600 -0.30976226
0.17660201 -0.07797801 -0.34444081
-0.09654992 0.07987700 -0.13344878
0.04241648 0.12339600 0.14467177
0.124659 0.09294200 0.04211692
0.17660201 0.03278493 -0.33971321
-0.06513015 0.07987700 -0.08171516
-0.16209588 -0.03428399 -0.26876301
0.01288965 0.12339600 0.18645709
-0.18591538 -0.00392441 0.31016001
0.17824601 0.05461701 0.27896251
-0.07609478 0.07987700 -0.01340514
0.29013431 -0.03397092 -0.21068904
-0.10019414 0.12339600 -0.13995775
-0.16904099 -0.00331664 0.24934932
-0.03134309 0.07987700 -0.12434448
0.2455786 -0.08834796 0.30743386
-0.05024661 0.07987700 -0.25945468
-0.21608833 -0.05603211 -0.37031343
-0.028284 0.12339600 0.35842191
0.17824601 0.03705721 0.23119225
-0.29396001 -0.04358862 -0.30541526
-0.27951742 0.06464103 0.3383469
0.01410919 0.07987700 -0.06492625
-0.19281709 -0.02963400 0.26754797
0.1109407 0.12339600 -0.23950505
-0.21388272 0.00941504 -0.20960293
0.008752 0.07987700 0.33388277
0.08897582 0.07987700 0.08682305
-0.01802761 0.07987700 0.14007137
-0.2198618 0.02459812 -0.37561757
-0.29380368 0.07896731 0.30730773
0.124659 0.12337236 -0.13316525
0.0281987 0.07987700 0.15479584
-0.09356101 0.12339600 -0.06248214
-0.16904099 -0.04362315 -0.31836854
0.12324589 0.01386042 -0.32355201
0.017949 0.06537690 0.28718694
-0.02387545 0.12339600 0.11099542
-0.18373299 -0.07094430 0.33611426
-0.107333 0.10591522 -0.11945744
-0.26086737 0.04887811 -0.36018151
-0.29427299 0.00861492 0.35311159
0.306218 0.03943997 -0.25049661
0.29256608 -0.04574639 -0.37636855
0.04956866 0.07987700 -0.27307824
-0.02834447 0.07987700 0.22986139
-0.107333 0.09192564 -0.17942575
-0.107333 0.08104251 0.09366367
0.306218 0.02640789 -0.32453707
-0.10674692 0.01820000 -0.29935462
-0.08837926 0.12339600 0.01859085
-0.04201196 -0.03010030 -0.32355201
-0.07764917 0.12339600 0.09019033
-0.05232626 -0.02371136 -0.26876301
0.10368723 0.12339600 0.09645463
0.15802186 0.02195700 0.30681353
0.19730107 -0.06597019 0.22210804
0.05302418 0.12339600 0.07869621
-0.10253702 0.12339600 -0.14803987
0.03432538 0.12339600 -0.35683855
0.24862166 0.03531882 0.3600968
0.306218 -0.01593446 -0.22220276
-0.1834934 -0.00652835 0.26257199
0.29191713 -0.07900710 0.23886315
-0.00539878 0.01820000 -0.28796526
0.306218 -0.06824214 -0.25244589
-0.18387127 -0.01660698 0.20557441
-0.29427299 -0.00673509 0.3579893
0.03566137 -0.03704500 -0.29145041
0.124659 0.08884891 -0.11744824
0.306566 -0.01539499 0.25988197
-0.02648776 0.12339600 -0.03519441
0.23515886 0.02195700 0.26620065
0.11292346 -0.02963400 0.27980595
0.22645458 -0.06487693 -0.22688655
0.21813131 -0.02963400 0.29751614
0.22663367 0.01820000 -0.30893918
-0.23209504 -0.09817777 -0.29442372
-0.10665324 0.12339600 -0.29350321
-0.16904099 0.03683060 0.28612593
0.17660201 0.01536200 -0.22365639
0.01253686 0.06425624 -0.26876301
-0.10645253 0.07987700 -0.01687892
-0.07487064 0.07987700 -0.23002758
-0.107333 0.08135316 -0.12886875
0.04114096 0.07987700 0.22341497
0.04597747 0.12339600 0.12573573
0.07374765 0.12339600 -0.05084054
0.0040647 0.07987700 -0.01547968
-0.22307365 0.07969531 0.30340956
0.29677086 -0.06797654 0.22448811
-0.29396001 -0.01321739 -0.37873484
-0.17785564 -0.02942000 0.26257199
-0.08877938 -0.03704500 -0.28569526
0.05157347 0.07987700 0.3645405
0.124659 0.12125777 -0.27401712
-0.09413668 0.07987700 0.25989098
0.08760096 0.01033583 0.31016001
0.18152078 -0.02983808 -0.21014341
-0.02312133 0.07987700 0.19648497
-0.02378016 0.07168759 -0.26876301
-0.29427299 -0.04546240 0.27895926
-0.09742755 -0.00265585 -0.26876301
0.01840679 0.07987700 0.05325888
-0.25809934 0.04081065 0.35988759
0.306566 0.02951820 0.25256126
-0.02326521 0.00132243 -0.32355201
-0.10338005 0.10101480 -0.37954199
-0.22981437 0.07201089 0.24916051
-0.07024955 0.08608904 -0.37954199
0.29347297 0.00629220 -0.38196446
-0.0178046 0.12339600 0.32212409
0.05918346 0.07987700 0.34223368
-0.04804512 0.00349639 -0.26876301
0.15849836 0.01820000 -0.28993565
-0.25727301 0.06116211 0.34240888
0.059409 -0.00855076 -0.32355201
0.05539047 0.07987700 0.18055852
-0.07130262 0.12339600 0.34840328
-0.16904099 -0.02660306 0.31826808
0.06269296 0.07987700 0.19335208
-0.06136693 0.12339600 -0.36221766
0.02232285 0.07987700 -0.01387409
0.09704544 0.07987700 0.11134551
-0.1268252 -0.02637341 0.31016001
0.07645332 0.07987700 -0.0083685
-0.05378076 0.07987700 -0.25208539
0.0407106 0.02195700 0.2856777
0.11798895 0.00309421 -0.32355201
-0.16904099 -0.02552379 0.23720677
0.09982601 0.02195700 0.27735938
0.14509463 -0.01274939 0.31016001
-0.08855356 -0.01090462 -0.32355201
0.17824601 0.04917279 0.24813554
-0.05958628 0.00330043 0.26257199
-0.08955547 0.12339600 0.16968909
0.10296651 0.07987700 0.24383246
0.14930579 -0.01565697 0.26257199
0.11506587 0.07987700 -0.27424659
0.10428419 0.12339600 0.37570316
-0.00616559 0.07987700 -0.14042123
0.00558238 0.12339600 0.08159592
0.00098334 0.12339600 0.33491866
-0.09546508 0.12339600 -0.06882686
0.03569454 0.07987700 -0.21396626
-0.23126541 -0.01898305 0.20575795
0.0542781 0.10436077 -0.37954199
-0.29396001 0.00494763 -0.30372122
0.0780823 0.07987700 0.35873757
-0.01019437 0.10866552 -0.37954199
-0.03686965 0.07987700 -0.16711379
-0.01246052 0.07987700 0.35830044
-0.07939071 0.01683797 0.26257199
-0.0854262 0.07987700 0.11099748
0.14950296 -0.03704500 -0.30454901
-0.16904099 -0.04485941 -0.36788126
0.30243995 -0.02195358 -0.38282933
-0.08014602 0.07987700 0.00587793
0.15187955 0.01074893 -0.32355201
0.02591535 0.12339600 -0.18107758
0.22303244 -0.08201016 0.32273662
-0.107333 0.11361894 0.31087487
0.05445348 0.07987700 0.21744571
-0.00854694 0.01086569 0.31016001
-0.16904099 0.06477857 -0.32622598
0.124659 0.11003388 0.16810228
0.09060015 0.07987700 -0.02060904
0.01123167 0.08423288 0.38343701
-0.28088066 0.01817292 0.20713855
-0.05521167 0.07987700 0.335599
0.18425228 0.00511748 0.36914726
-0.2370024 -0.08756343 -0.33689865
0.25688184 0.06764141 -0.25736721
-0.12286492 0.00957751 -0.32355201
-0.06205777 0.12339600 -0.04918176
0.22944256 -0.05357928 0.2125996
0.124659 0.09410269 -0.29364309
-0.28981417 0.02195700 0.29777462
-0.27116758 -0.02927168 0.26257199
-0.2265935 -0.07668529 0.24985034
-0.09582512 -0.03704500 -0.28259814
0.21054837 0.07185445 -0.26753869
-0.04080894 -0.01897546 0.26257199
0.17660201 0.04860791 -0.3433056
0.17660201 0.02168045 -0.36381928
0.306566 0.07400572 0.31213885
0.25668031 0.01820000 -0.29713951
0.28620621 -0.01013348 -0.26876301
0.03980273 0.01637263 -0.32355201
-0.00238005 0.07987700 -0.00060218
0.24400359 -0.04325075 -0.21453275
-0.04209245 0.12339600 0.14039359
-0.06056322 0.07987700 0.36493598
0.21820466 0.00711520 0.19864983
-0.107333 0.10734789 0.31588068
-0.09342704 0.12033393 -0.37954199
0.20867342 0.01892569 0.31016001
-0.06536021 0.11992971 -0.37954199
0.20574775 0.01054732 -0.2105306
0.0489648 0.12339600 -0.36060403
0.17824601 -0.02303222 0.34898698
0.05091161 0.09564260 -0.37954199
0.25287411 0.07289668 -0.3218801
0.28077692 -0.00820156 -0.38387236
0.124659 0.09821492 0.26366064
-0.05293591 0.07987700 0.16204791
0.19552855 0.03990957 0.20991548
-0.01184972 0.07987700 0.02244819
-0.03625365 0.07987700 -0.37386376
0.0676988 0.12339600 -0.22642928
0.01620692 0.12339600 -0.26160668
-0.04724332 0.12339600 0.23311325
0.124659 0.09381207 0.11887502
0.1001147 0.12339600 -0.07505642
0.124659 0.11378460 -0.14887594
0.0201839 0.12339600 -0.04115584
0.20715857 0.05001993 -0.232545
-0.25826889 0.02561429 0.36694852
-0.06063263 0.12339600 -0.36468522
0.07661545 0.07987700 0.10478768
-0.09255419 0.12339600 -0.32582889
-0.10030406 0.07987700 -0.14868204
0.017949 0.03928344 0.30430398
-0.04572806 0.07987700 -0.17770387
0.27195275 0.01149476 0.31016001
-0.01251792 0.12339600 0.10234365
-0.16904099 0.02775902 0.22471677
0.2497642 -0.02026288 0.31016001
-0.29396001 -0.02498501 -0.28961092
0.12248151 0.07987700 -0.06595746
0.09825546 0.07987700 -0.19271919
-0.16178256 -0.03704500 -0.28629374
0.17660201 -0.02604453 -0.38052949
0.04241674 0.07987700 0.24800945
0.11089028 -0.03704500 -0.2701979
0.26888555 0.01820000 -0.32103802
-0.19543433 0.07729062 -0.28917461
0.10837102 0.01520990 0.31016001
0.03889273 0.07987700 0.32716341
-0.05744827 0.07987700 -0.27295857
-0.05000113 0.01820000 -0.32040409
0.07960234 0.12339600 -0.13465855
0.124659 0.08619229 0.34387023
-0.06876257 0.01820000 -0.29349174
-0.02324998 0.12339600 -0.31036551
-0.03194958 0.07987700 -0.35032688
-0.17289287 0.04572307 -0.22795086
0.0019871 0.06222983 -0.26876301
-0.24666894 0.03870450 -0.36819132
0.00630626 -0.02963400 0.30171957
0.08977637 0.12339600 0.11661557
-0.05903774 -0.02709927 -0.26876301
-0.0848713 0.12339600 -0.1106411
-0.00328574 0.07987700 0.18379978
-0.20172988 0.06502836 0.33789465
-0.13697622 -0.00484136 -0.32355201
-0.23044097 0.02798247 0.36611354
0.08841198 0.07987700 0.18468439
0.04161899 0.08866672 -0.37954199
-0.20916182 0.05382144 -0.35581629
0.17660201 -0.07923296 -0.27091412
-0.22933487 0.07944138 0.26932609
0.0193771 -0.02525243 -0.32355201
-0.02686569 0.07987700 -0.17041617
0.17391929 0.00748904 0.26257199
0.17824601 -0.04245496 0.21560026
-0.08907452 0.07987700 -0.18787423
-0.02964 0.03458680 0.29848951
-0.15079891 0.00858626 -0.32355201
-0.07290911 0.12339600 -0.035179
-0.18011851 0.07578833 -0.31305617
-0.16904099 -0.01197160 -0.25675552
-0.02194998 -0.02963400 0.27123017
0.17824601 0.01220282 0.24121879
0.25715324 -0.04308749 -0.21446513
0.28185331 -0.00366393 0.37030372
-0.16904099 0.01556182 -0.22410293
-0.29427299 0.02473436 0.33151846
0.01532618 0.01583570 -0.26876301
0.06401481 0.12339600 -0.1720249
0.23061951 0.06191540 0.22984463
-0.07268048 0.12339600 0.18134914
0.11513017 0.07987700 -0.27491565
-0.02264463 0.12339600 0.05758284
0.18998242 -0.05860426 0.21645563
0.10744166 -0.03704500 -0.27338052
-0.22197271 -0.02963400 0.30953125
0.17660201 -0.06432530 -0.28928429
0.19660549 -0.00369396 -0.26876301
-0.16904099 -0.07555719 -0.27932448
-0.08058475 0.07987700 0.01861874
0.13053326 -0.02202503 0.26257199
0.29855045 -0.03632773 0.20364202
0.19372127 0.07129166 -0.32575506
0.124659 0.08084893 0.28689255
0.15981824 -0.01790101 0.31016001
0.12401006 0.07987700 -0.18929706
0.01610932 0.07987700 -0.00559261
-0.29427299 -0.02438236 0.31706056
0.17824601 -0.00635375 0.3143105
-0.22866646 0.06072934 -0.24404143
-0.01690331 0.07987700 0.1412248
-0.19975852 -0.02576559 0.20790642
-0.107333 0.10741714 0.33177404
-0.29427299 -0.05779768 0.27372902
-0.02964 0.05957138 0.27816678
0.24421001 0.07459279 -0.31556818
0.01199179 0.12339600 0.29985832
-0.08767983 0.07987700 -0.30312997
-0.16904099 0.00522800 -0.35524746
-0.09887526 0.12339600 -0.13069457
0.08907138 0.11399009 0.38343701
0.08236401 0.01820000 -0.27943278
0.17660201 -0.04243140 -0.25926119
0.29673421 -0.06553983 -0.36453977
-0.09580836 0.12339600 0.3150744
-0.17246495 0.04880756 0.35440854
0.00013143 0.12339600 0.3560165
-0.0435446 0.07987700 0.1307239
0.18346962 -0.01283626 0.36947034
0.23876491 -0.07295776 -0.23308738
-0.29427299 0.00196137 0.22355608
0.124659 0.10618850 -0.12901515
0.08410361 0.12339600 -0.06863448
0.306566 -0.01363967 0.28646782
-0.29341231 0.04665391 -0.22864693
-0.29396001 -0.03793812 -0.29700378
-0.01739537 0.04772128 -0.32355201
-0.25762486 -0.04471682 0.21595437
0.18392262 0.00770392 0.19872736
-0.0274693 0.07987700 -0.18898008
-0.19839007 0.07787841 0.26489383
-0.107333 0.09712682 -0.31942232
0.23041338 0.01835470 0.31016001
0.10720399 -0.02963400 0.29207339
0.11330993 -0.02963400 0.28180086
-0.00538114 0.12339600 0.13968399
0.19025422 -0.04188344 0.20594309
-0.23871598 -0.03027384 -0.20987778
0.20059196 -0.05828422 0.21621004
-0.06702059 0.12339600 0.10747368
-0.01492537 -0.02963400 0.30582059
-0.07315934 0.00701913 0.31016001
0.19736806 0.01820000 -0.31594351
0.04744538 0.07987700 0.08373685
-0.04885844 0.07987700 -0.31509144
0.28428687 0.04242181 0.2118432
-0.28459748 -0.07042782 0.33686804
0.17824601 0.06373737 0.28803822
-0.20279678 -0.07466415 0.33068527
-0.29396001 -0.07982979 -0.24546319
-0.14132098 -0.03704500 -0.31103989
0.02952368 0.00179597 -0.26876301
-0.0313195 0.12339600 -0.32397101
-0.1015031 0.07987700 0.03151339
-0.00177804 0.12339600 0.15339407
0.09570067 0.12339600 -0.12914198
0.306218 -0.01375367 -0.33287771
-0.107333 0.09280793 -0.01955387
-0.16904099 -0.05571517 0.30123509
0.09115704 0.12339600 0.2351494
0.00559131 0.12339600 0.10295071
0.05677365 0.12339600 0.07986814
-0.107333 0.08362126 -0.1879833
-0.22758932 -0.05876691 0.22559008
-0.11784213 0.01347352 -0.32355201
0.05186052 0.12339600 -0.20659936
0.17824601 -0.00905884 0.25219981
0.20235829 -0.07557593 -0.35575033
0.17660201 0.04619523 -0.35192498
-0.17825604 -0.08532433 0.27692762
0.07790232 0.07987700 -0.24086138
0.09785684 0.07987700 -0.16502343
-0.15302541 -0.02408485 -0.26876301
-0.21238645 -0.03326570 -0.38034447
0.19733571 0.07780797 0.30832454
-0.04067808 0.07987700 0.32237248
0.02988592 0.00543230 -0.26876301
-0.04689126 0.07987700 -0.19466262
0.26924892 0.07537539 -0.30962302
-0.107333 0.09994552 0.24779589
-0.07852115 0.12339600 -0.21195964
0.22795769 0.01280907 -0.21113188
-0.29396001 -0.03906375 -0.21551678
-0.29396001 0.02860095 -0.35322651
0.08269164 0.02195700 0.2844607
0.28354304 -0.08978061 0.29917383
0.09513697 0.12339600 0.21938221
-0.01381494 0.07987700 0.25865661
-0.22989775 0.03030733 -0.37316914
0.08034918 0.12339600 0.00045617
0.2620406 0.01773180 0.31016001
0.07172484 0.12339600 -0.15049739
0.08442718 0.12339600 0.21071541
0.01926049 -0.02122299 -0.26876301
0.124659 0.11837968 0.02138869
0.20789077 -0.03649142 0.20370982
0.1047842 -0.02963400 0.29329092
-0.29396001 -0.01636896 -0.33239922
-0.06067193 0.12339600 -0.33056655
-0.11837148 0.01754692 0.31016001
0.124659 0.09160253 0.01228304
-0.01462627 0.07987700 -0.37420194
-0.107333 0.12166976 0.15621752
-0.24905855 -0.07888870 -0.34952141
0.0728245 0.07987700 -0.17799453
-0.03201326 -0.01334214 -0.32355201
-0.107333 0.09101952 -0.26244965
0.01172452 0.07987700 0.2549833
0.05712282 0.07987700 -0.077882
0.07112283 0.12339600 -0.07886344
0.27015721 -0.09867535 -0.29042616
-0.02741904 0.07987700 0.06683541
-0.00065832 0.07987700 -0.33410858
0.11564504 0.07987700 0.16732526
0.216787 0.02132130 0.3658943
-0.07272806 0.12112807 0.38343701
-0.29169327 0.08165575 0.29250513
-0.07672619 0.01506729 0.26257199
0.25744749 0.02195700 0.28012325
0.18656671 -0.07467762 0.33431403
-0.02526989 0.07987700 -0.00376117
0.17845817 -0.03704500 -0.31639673
0.06350277 0.12339600 0.30984467
-0.29396001 -0.08592350 -0.26223815
-0.02029131 0.12339600 0.14898353
0.124659 0.08751308 -0.30656044
0.21770592 -0.01477031 -0.32355201
-0.09367185 0.01820000 -0.3171611
0.03472106 0.12339600 -0.31238518
-0.09569583 0.12339600 -0.042807
0.17660201 0.03203871 -0.28200124
-0.00266752 0.02195700 0.27125987
0.13594849 0.01820000 -0.28721361
-0.23891113 0.00143081 -0.20865268
0.08736661 -0.01841712 -0.26876301
0.11421587 0.12339600 0.28513306
0.24469895 -0.02134478 0.26257199
-0.06126409 0.12339600 0.16363915
0.18328475 -0.02512640 0.1996822
0.13300824 -0.02963400 0.29776812
-0.02878352 -0.01094566 -0.32355201
-0.01473904 0.12339600 0.23829788
0.05625708 0.07987700 0.14890503
0.306566 -0.04615088 0.31569837
0.19598921 0.01820000 -0.28126972
-0.04733348 -0.01926249 -0.26876301
0.16191343 -0.03704500 -0.32126409
-0.0798601 0.12339600 -0.34436991
-0.10153585 0.07987700 0.05532496
-0.04156555 0.12339600 0.19511026
0.09385994 0.08010937 -0.37954199
-0.29396001 -0.03426450 -0.2683977
0.22519321 0.02195700 0.28695921
0.07119272 0.07987700 0.03328165
-0.03908277 0.12339600 0.25922792
0.1168929 -0.03704500 -0.26940703
-0.02741531 0.02195700 0.29238334
0.02554227 0.12339600 0.27578024
0.09803484 -0.02963400 0.26485313
-0.107333 0.08595912 0.01064165
-0.2497302 -0.01746401 0.20564061
-0.22644879 -0.02497393 -0.38169445
-0.107333 0.10977248 -0.28892408
0.04281794 0.07987700 0.29778155
-0.22639124 -0.09610896 -0.31247186
-0.01986399 0.07987700 -0.25243478
-0.23653877 -0.02934115 0.26257199
-0.16904099 -0.06199722 0.27546751
0.1965982 0.00370197 -0.20962922
-0.29427299 0.01854417 0.3145073
-0.00033729 0.12339600 -0.06716083
0.21110506 -0.01389919 0.26257199
0.25672699 0.01016042 0.31016001
-0.11819109 -0.02722355 -0.26876301
-0.03318986 0.12339600 -0.07616861
-0.27604903 0.07415268 -0.32001175
0.06743371 -0.00391242 -0.32355201
-0.02964 0.07582726 0.26775082
0.17660201 0.02410087 -0.34681679
-0.26742446 -0.01446105 0.37101046
0.17660201 -0.08632022 -0.29438169
0.06675569 0.08322530 -0.37954199
0.19772504 0.02118911 0.31016001
-0.00835171 0.12339600 0.21339005
0.01930406 0.09186566 0.38343701
0.28131353 -0.06464037 -0.36522997
-0.08989843 0.12339600 -0.12562416
0.06626105 0.01820000 -0.29025683
0.306218 0.04514199 -0.25272869
0.29838818 -0.09648349 -0.3181536
-0.107333 0.11976369 0.34770999
0.19981499 -0.01197507 -0.20779113
-0.00063931 0.07987700 0.24918102
-0.107333 0.10450000 -0.00438479
0.2350429 -0.09851840 -0.30270005
0.25709175 -0.02963400 0.30461303
0.03840781 0.07987700 -0.31013295
0.23248519 0.07175314 0.24459185
-0.22996736 -0.01861476 0.37023455
0.05506894 0.07987700 -0.3769541
0.01419501 0.07987700 0.37832013
-0.21210255 -0.06644414 -0.36252784
-0.107333 0.11793028 -0.24850899
0.09503071 -0.01864378 0.31016001
-0.18955799 0.07501596 0.25677651
0.17824601 0.07879547 0.28115344
0.17660201 -0.09411067 -0.2740319
-0.24484741 0.01389251 0.26257199
0.17824601 -0.03953451 0.28470343
0.30334334 0.07706369 -0.29513661
0.0181254 0.12339600 -0.20228452
-0.08880944 0.07987700 -0.13893058
0.25856692 -0.00065684 -0.32355201
-0.01116908 0.07987700 0.14511764
0.01057645 0.12339600 -0.06749395
0.09974842 0.01783637 0.31016001
0.00313908 0.07987700 0.0912767
-0.04702189 0.07987700 -0.20445966
0.306566 -0.03823841 0.25610128
0.24902882 0.00044165 -0.2091999
0.23317605 0.04779898 -0.23084075
-0.07645353 0.08565087 0.38343701
-0.07201985 0.12339600 0.09166425
0.00132906 0.12339600 -0.09935016
-0.107333 0.09628767 0.27771156
-0.29396001 -0.06039437 -0.31363648
-0.28239562 -0.08289504 0.26392028
-0.107333 0.09214343 0.28871339
0.306566 -0.00423361 0.3642572
-0.01044918 -0.00187607 -0.32355201
0.21571062 -0.09060054 0.29294599
-0.0762032 0.12339600 0.357742
-0.2034294 -0.07350650 0.24320959
0.19511034 0.02195700 0.29382302
0.05085803 0.12339600 -0.02811617
0.17824601 -0.03596048 0.34690336
-0.00229669 0.07987700 0.18040372
-0.0202708 0.12339600 -0.221873
-0.04134622 0.01820000 -0.29912563
0.20078413 -0.01746231 -0.26876301
0.124659 0.11101276 -0.14027901
-0.23110224 -0.02963400 0.29667373
-0.26614913 0.05389854 -0.35571319
0.20756763 0.04382935 0.21292325
-0.03697217 0.07987700 -0.0261388
0.124659 0.09810873 0.29218846
-0.08489078 -0.03704500 -0.28577042
-0.02965335 0.12339600 0.27679116
0.23059837 0.05527572 -0.23870087
-0.16904099 0.03065701 -0.32567381
-0.08451251 0.12339600 -0.35168865
0.04443334 0.07987700 -0.3517018
0.23974661 0.02195700 0.26467267
-0.01452258 0.12339600 0.13651119
-0.16904099 0.03019092 -0.3363574
-0.00231156 0.09617377 0.38343701
0.30185062 0.03979954 -0.22470237
0.23541865 -0.02757346 0.20001618
-0.107333 0.08646587 0.31462747
0.08248227 0.00092641 0.26257199
0.15462788 0.02195700 0.27881552
0.06020431 0.07987700 -0.24698655
0.01899078 0.12339600 -0.01967643
0.17660201 0.03084072 -0.28158827
0.097903 0.07987700 0.1221813
-0.22690837 -0.09742839 -0.28812717
-0.16037374 -0.02963400 0.27497234
-0.11099216 -0.02963400 0.27762013
-0.00989299 0.12339600 -0.00260479
-0.02048601 0.07987700 0.3692379
-0.18993578 -0.00611534 0.31016001
0.23372192 -0.07805648 -0.35251771
0.17824601 -0.00034951 0.22846182
0.15294358 -0.02092991 -0.26876301
-0.01017971 0.12339600 0.19182998
-0.03919884 0.07987700 -0.31119984
-0.28176061 0.07607622 -0.28076016
0.02398509 0.07987700 -0.24688363
0.26902638 0.00860123 -0.21027435
0.17743034 -0.01077215 0.26257199
-0.107333 0.08288058 0.02039611
-0.27775991 -0.09484782 -0.31991298
-0.16904099 -0.05331407 -0.32019197
0.24455096 -0.03704500 -0.29775277
0.306218 -0.06006366 -0.26490393
0.08293739 0.09315824 -0.37954199
0.124659 0.08265153 0.10271814
-0.25140989 0.06241296 -0.24617988
-0.07927397 0.12339600 0.3603931
0.27877758 -0.08943526 0.26573465
-0.14799946 0.01078817 -0.32355201
0.30108316 -0.08681273 0.31114069
-0.107333 0.11090696 -0.364166
-0.27423897 -0.08786905 -0.25400005
0.0983119 0.12339600 -0.19403938
-0.07580738 0.12339600 -0.13423565
-0.16904099 -0.05015031 0.30989751
0.28499361 0.08020401 0.27287354
0.306218 -0.06567443 -0.23138476
0.0834172 0.07987700 0.25383401
0.27251764 0.02195700 0.30143573
-0.030346 0.04459668 -0.32176824
-0.02637591 -0.03704500 -0.32084441
-0.01659441 0.12339600 -0.14788265
-0.2858807 -0.09329713 -0.26758105
0.17660201 -0.07517834 -0.30236588
-0.16904099 -0.02961303 -0.3697244
-0.107333 0.08468608 -0.08648576
0.20918404 0.05238699 0.21948978
-0.03651077 0.09830448 0.38343701
0.21854208 0.01820000 -0.27304849
0.11756784 0.12339600 0.16259406
0.0087353 0.12339600 0.05480277
-0.12603219 0.01820000 -0.289211
0.10578069 0.07987700 0.23691553
0.29341191 0.00662929 -0.32355201
0.306218 0.06328720 -0.30320096
-0.0436243 0.07987700 -0.27298549
-0.09987421 -0.02099276 -0.32355201
-0.18807277 0.05803415 -0.24061816
-0.03926844 0.01820000 -0.28469472
0.23268893 -0.03444816 0.36467046
0.18045461 -0.04851005 0.20870962
0.10363876 0.07987700 -0.3275334
-0.16904099 -0.00664507 0.37045442
0.08445958 0.07987700 -0.01494356
0.03023899 0.12339600 -0.01541172
0.05057891 0.02195700 0.27290269
-0.2213399 0.07387673 0.25354589
0.18405691 -0.04992040 0.3577422
0.18535403 0.02195700 0.29687557
0.26570849 -0.04219219 0.36146303
-0.2735715 -0.01438367 -0.3829544
0.17660201 0.03041975 -0.36605925
0.2239189 -0.03597824 0.20349727
0.306218 -0.04826981 -0.23250524
0.17824601 -0.06089060 0.32158111
-0.16904099 -0.00351194 -0.33678889
-0.07985671 0.07987700 0.35412013
0.25175254 -0.04912136 -0.21696436
0.05354235 0.07987700 0.22231721
0.20058352 -0.07519340 -0.35624884
0.25664311 -0.03704500 -0.30788841
0.17660201 -0.04899987 -0.23686143
-0.29396001 -0.05080101 -0.31215972
0.08950916 0.07987700 0.37929657
0.08923422 0.12339600 0.35974893
-0.18538458 -0.03979925 -0.37773282
0.30222872 0.06222737 0.23025121
0.29144113 -0.04140474 -0.21376813
0.09039263 -0.01473039 0.31016001
-0.04616318 -0.02355868 -0.26876301
0.0748712 -0.03704500 -0.27733541
-0.22855404 0.05540323 0.22783608
-0.107333 0.11747469 0.18417854
-0.05520057 0.12339600 -0.33654245
0.22427596 -0.02610325 -0.20965159
0.306218 0.02323923 -0.22200117
0.1783461 -0.00013568 -0.3828106
-0.03792603 0.07987700 0.12902559
0.19573505 -0.02963400 0.28190299
0.03838969 0.12339600 0.16721556
0.124659 0.09946237 -0.30841367
0.306218 0.02818271 -0.37373511
0.01131886 0.07987700 -0.22363566
0.024442 0.07702641 -0.3201553
-0.22526513 -0.00315612 0.31016001
-0.29427299 0.06416826 0.27714381
0.03626148 0.02195700 0.28512033
0.18732154 -0.08558597 0.31410273
0.10707346 0.07987700 -0.36691417
-0.19064832 -0.00520597 -0.20786281
0.11032977 -0.01441622 0.31016001
-0.29427299 0.05256921 0.28288446
0.0114724 0.07987700 0.13936589
0.11314152 0.01820000 -0.27970738
-0.04510059 0.07987700 -0.10909258
-0.28287486 -0.02468476 -0.38172886
-0.16904099 0.05118732 -0.28115116
-0.02324861 -0.02600799 0.26257199
-0.05493364 0.07987700 0.27458976
0.124659 0.11742632 -0.14724241
0.19525162 0.00282439 0.19808475
0.306218 0.03544656 -0.29081492
-0.29427299 0.05675900 0.31979733
0.07016265 0.12339600 -0.3644314
0.18446072 -0.01641288 -0.32355201
0.26259278 -0.09072622 0.29199135
-0.07907089 0.02195700 0.27341679
-0.033978 0.12339600 0.32234068
-0.18052591 -0.02720952 0.36862905
0.06779331 0.07987700 0.37902043
0.05732145 0.00961394 0.31016001
-0.16904099 0.02546911 0.21228125
0.08586961 0.12339600 0.10284647
-0.28557482 -0.03405834 0.36575896
0.02288669 0.04944676 -0.26876301
0.00168497 0.12339600 0.3331105
-0.04106747 0.12339600 0.35107343
0.19290548 -0.04705450 0.35944916
-0.08698029 0.12339600 0.16052853
-0.107333 0.08585347 -0.31239623
-0.03851193 0.07987700 0.11403992
0.18977862 -0.09627618 -0.31910727
-0.02875949 0.02420342 0.31016001
0.27473532 0.07063972 -0.32732903
-0.09902445 0.01276017 0.31016001
0.03424702 0.07987700 -0.35039825
-0.16904099 0.04469535 0.23423885
-0.05700456 0.12339600 0.33671165
-0.02568885 0.06312501 -0.26876301
-0.15767973 -0.02624007 0.31016001
-0.28512226 0.02195700 0.29390478
-0.06954217 -0.02963400 0.30390376
0.08088906 0.12339600 -0.27330606
-0.23578731 -0.05565834 -0.21982059
0.306566 0.04086017 0.296117
-0.10748528 0.00578019 0.31016001
-0.01733631 0.07987700 -0.13297812
-0.24525863 -0.08405288 0.27011983
-0.29396001 -0.03944040 -0.21794136
-0.03153647 -0.00917500 0.31016001
-0.21376272 0.04922843 -0.3599057
0.124659 0.10762974 -0.12633006
0.17660201 0.05847521 -0.29870418
-0.01643497 0.02195700 0.28577449
0.0148421 0.12339600 0.15517934
0.06837794 -0.03081641 -0.26876301
0.06194113 0.02195700 0.26902731
0.1379482 -0.01916215 0.26257199
0.23191922 -0.01844456 -0.38329126
0.27044186 -0.03839436 -0.37941376
0.306566 0.00386482 0.23993756
-0.27762428 0.05317607 -0.2344477
0.0646589 0.07987700 0.08315376
0.17692785 0.05372229 -0.23667645
-0.24028106 0.02195700 0.2955561
0.23482025 -0.09167301 0.28273398
0.19125465 -0.00942805 -0.32355201
-0.00399845 0.12339600 0.08577466
0.17660201 -0.08247622 -0.31732512
0.124659 0.08079665 -0.00473084
0.11655414 0.12339600 -0.3532914
0.23087276 0.06256676 -0.24820245
0.07754172 0.07987700 -0.24141289
-0.07631777 0.12339600 -0.29440937
0.08992343 0.12339600 -0.35718005
0.17660201 -0.05745213 -0.29688674
0.28901641 -0.03153631 0.36587649
0.306566 -0.06373436 0.24634206
0.10238814 0.07987700 0.18951909
0.04868384 0.12339600 0.37533317
0.0207899 0.07987700 -0.25344527
-0.25292202 0.03493333 0.21355177
-0.05545604 0.07987700 -0.30913057
-0.17535633 0.02195700 0.30621579
-0.16904099 -0.09276022 -0.30544913
0.0883984 0.12339600 0.10407008
-0.17122337 0.02338572 -0.37613752
0.29792009 -0.03847416 -0.21255428
0.306566 -0.02037539 0.24366429
-0.02406975 0.01820000 -0.28571366
-0.01322429 -0.02663401 0.26257199
0.02563834 0.07987700 -0.27078653
0.09540135 0.12339600 0.36520417
0.124659 0.11253485 0.08421944
0.1482232 0.00675512 -0.26876301
0.18380611 -0.03919933 -0.21285465
-0.03477014 0.12339600 -0.15484905
0.14157888 0.02195700 0.30517826
0.16415487 -0.02963400 0.26316432
-0.22157426 0.07991785 0.27067724
-0.02345208 0.02195700 0.28850413
-0.23202965 0.00971059 0.26257199
-0.06250957 0.12339600 -0.01967688
0.26070662 0.02630416 0.2037035
0.08267892 0.12339600 -0.13610622
-0.07887632 0.01692830 0.26257199
-0.22363233 0.02251940 0.20794987
0.2291305 0.01617240 0.36769139
-0.02797257 0.07987700 -0.15018075
-0.107333 0.08737988 0.06314645
0.22664637 0.05984306 0.22714375
-0.107333 0.11692321 0.02972586
0.01530287 -0.02963400 0.30127739
-0.29396001 0.00069118 -0.25172043
-0.09208408 0.01985097 0.31016001
0.0919962 0.07987700 0.35367696
-0.20667026 0.06750945 -0.3366311
0.07687846 0.12339600 -0.34404362
0.124659 0.08320168 -0.11873677
-0.18375679 -0.00932761 0.37196939
0.017949 0.03357366 0.26884632
0.28084479 -0.05474781 -0.21929485
0.09826347 0.07987700 -0.08692958
0.124659 0.11885486 0.2346396
0.05127643 0.07987700 -0.12482356
0.2937454 -0.09756054 -0.30997425
-0.25547325 0.08041563 0.27645964
0.124659 0.09591649 0.18348505
0.27953019 -0.02012993 0.3685098
-0.13793228 0.01255287 0.31016001
0.11048246 0.12339600 -0.13696925
0.06808177 0.00515957 -0.26876301
-0.01474945 0.07987700 0.20641137
-0.05837433 0.07987700 0.06059341
0.26269087 -0.02963400 0.26795076
0.21674156 -0.06999827 -0.36111859
-0.0299315 0.12339600 -0.07473075
-0.09147128 -0.01927062 0.31016001
-0.26266685 -0.07880981 -0.24104668
-0.03987112 0.10936578 -0.37954199
-0.27609831 -0.05735219 0.35124647
-0.01489132 0.04001301 -0.26876301
0.03819575 0.07987700 0.12066775
0.14752669 0.00832540 -0.26876301
0.20749135 0.05783082 -0.24203064
-0.27887267 0.04952702 -0.23079541
-0.29396001 -0.05634555 -0.32622051
-0.29427299 -0.05181850 0.22491682
0.27568997 0.04271469 0.21206794
0.2744227 -0.07607440 0.23504125
-0.29396001 -0.03362887 -0.32380654
-0.05045448 0.12339600 0.17259398
-0.16904099 -0.03173224 0.31101605
0.28163931 0.01820000 -0.29109844
-0.19757833 0.04589109 -0.2280765
-0.09620185 0.07987700 0.37637971
0.124659 0.09190242 -0.2758031
-0.23889082 -0.08122913 -0.34654873
0.0456929 0.12339600 0.17871055
0.20750651 0.07052457 -0.32760703
-0.25615031 0.07767982 -0.29716328
-0.29396001 0.03747648 -0.30420272
-0.29427299 0.02012517 0.25149198
-0.08558123 0.12339600 -0.28947302
0.20586209 -0.05275520 0.35556701
-0.01359037 0.04732850 0.31016001
-0.03028258 0.12339600 -0.37736102
0.2309968 -0.00397561 -0.32355201
0.30496585 0.00951522 0.31016001
-0.107333 0.10387047 0.37680673
0.20257448 -0.05833559 0.21624946
0.16052567 -0.01560971 0.31016001
0.0098804 0.12339600 -0.19597968
0.27166876 -0.05667573 0.21497573
0.21380215 -0.09717685 -0.27904669
-0.26935646 -0.02234115 0.31016001
-0.107333 0.10457466 -0.11303102
-0.18107263 0.07655145 -0.28405297
-0.25419462 -0.03540025 -0.37949123
0.306566 -0.05742077 0.27771686
0.04869929 0.11029926 -0.37954199
0.30603452 -0.09154555 -0.33052836
-0.01871458 -0.03704500 -0.28216595
0.04098732 -0.00802790 0.26257199
0.0795737 -0.02920545 0.31016001
0.21084668 0.07511381 -0.31161019
0.27916697 -0.06674627 0.22288483
-0.29396001 -0.00245864 -0.32646014
-0.02964 0.05954589 0.30801094
0.22701584 -0.01560222 -0.38366543
-0.24876052 -0.08173275 -0.24495587
-0.16904099 -0.02939027 -0.23589225
0.124659 0.09059275 0.25438447
0.07456111 -0.03704500 -0.31465264
0.306566 0.02044240 0.22636651
0.306218 -0.08082805 -0.31557715
-0.0516625 0.12339600 -0.02001114
-0.28681581 0.00455760 0.31016001
0.09341447 0.12339600 -0.21871524
-0.02787403 0.07987700 0.11527671
-0.28042073 -0.06030154 0.34872065
-0.26505904 -0.00381647 -0.38282047
0.306218 0.04623671 -0.28257409
-0.22080656 0.07767607 0.31422185
0.25742043 -0.08431799 0.25036881
-0.05960483 0.12339600 -0.34657059
-0.030346 0.02555894 -0.27513131
-0.07224393 0.07987700 -0.02876739
0.26598572 0.06128324 -0.34540522
0.06134848 -0.03704500 -0.31358202
-0.18416314 -0.08545618 0.27763359
0.17824601 -0.05738143 0.34049839
0.306218 -0.03590851 -0.21592667
-0.29427299 0.00630605 0.25783037
0.05750159 -0.02847089 0.26257199
-0.030346 0.04622002 -0.31552223
0.024442 0.04464092 -0.31734847
0.02882637 0.12339600 -0.33377271
0.17660201 0.03506373 -0.26037644
-0.28576328 0.04532884 -0.36297589
0.0481192 0.07987700 -0.09491732
0.03576148 0.07987700 0.10416671
0.07093394 0.12339600 -0.19743799
-0.107333 0.09031126 0.24056347
-0.26614789 -0.02221839 0.20665596
0.09714873 0.07987700 -0.04633793
-0.107333 0.10322153 0.05333034
-0.25525761 -0.04743521 -0.2161513
-0.29396001 -0.00965895 -0.27775696
0.25155152 -0.00286756 0.31016001
0.27547283 -0.04716961 -0.37577905
-0.07398371 0.07987700 -0.15576646
0.00349845 0.07987700 0.21865213
0.11880316 0.11611200 -0.37954199
0.22459162 -0.07866399 0.238416
0.19296721 -0.02645333 0.36767705
-0.25559359 -0.08628418 0.28206703
0.21660003 -0.09912924 -0.29387292
-0.00674272 0.06575858 -0.26876301
-0.00961159 0.00522395 -0.32355201
-0.1904779 -0.02075025 -0.38219695
0.19946038 0.00302056 -0.20953949
-0.22425586 0.00231969 -0.38193488
-0.06403689 -0.02963400 0.27581978
-0.03591848 0.12339600 0.3195432
0.25535319 0.02195700 0.28123761
0.0909011 0.12339600 -0.32873454
0.26544617 0.05506476 -0.35350906
0.01618983 -0.01852390 -0.32355201
0.306218 -0.01740509 -0.3367035
-0.09489763 0.07987700 -0.15093958
-0.00129072 0.12339600 0.34611621
-0.1979249 -0.03605509 0.36480331
-0.0684329 0.07987700 -0.18998476
0.25814972 0.04161224 -0.36584165
0.28710899 0.00236024 0.26257199
0.07847189 0.07987700 0.34776203
0.11966742 0.07987700 -0.08731501
0.24898431 -0.02716630 0.31016001
0.24377348 0.00537834 -0.26876301
0.20212361 0.01820000 -0.32065711
0.23604311 -0.08546210 0.25313077
-0.2482137 -0.08028097 0.31877914
0.26272665 0.04905183 -0.23180212
0.13642353 -0.01004533 -0.26876301
0.22928117 -0.07546880 -0.35588994
0.27624087 0.04645948 0.21494143
-0.26570047 0.05164875 0.35246191
0.25187081 -0.09073998 0.29188685
-0.19960528 -0.09283993 -0.32459495
-0.04505514 0.12339600 -0.00356297
0.06446729 0.07987700 -0.11550689
-0.03712503 0.12339600 -0.15101669
-0.02204211 0.01518679 0.26257199
0.14109675 -0.02963400 0.27359902
-0.09472641 0.07987700 0.37844823
-0.11112443 0.01820000 -0.29784732
0.017949 0.04427705 0.29219991
0.24866442 0.07557733 0.25382261
-0.10283959 0.07987700 0.22266347
-0.01392923 0.07987700 -0.37353204
0.02821686 0.08470036 -0.37954199
0.20611175 0.05544656 -0.2389235
0.02923561 0.12339600 -0.2664349
0.19753644 0.01383726 -0.26876301
0.17824601 -0.05662907 0.27628094
-0.28930009 0.05411373 -0.23563866
0.124659 0.11524873 -0.01132082
0.05048992 0.07987700 0.24332766
0.18213036 -0.06537371 0.22165031
0.1981279 -0.03503617 -0.38080473
0.05319108 0.07987700 -0.2511412
-0.22215512 -0.00651795 0.31016001
0.24648064 0.07670371 -0.29240205
0.10129566 0.12339600 -0.11290483
0.17660201 0.03556051 -0.29004776
-0.29396001 -0.00785887 -0.26968311
0.306218 0.04908380 -0.3031841
0.01399002 0.07987700 0.02021744
0.306566 -0.04698078 0.27802723
-0.09414989 0.07987700 0.05898229
0.07389941 0.12339600 -0.1771977
0.23939185 0.00508318 -0.26876301
-0.29427299 -0.03239491 0.33178227
-0.08631869 -0.03087315 -0.26876301
0.11940932 0.07987700 0.14101516
0.01293887 0.02195700 0.28659144
-0.21130971 0.02195700 0.27725836
-0.07217301 0.07987700 0.10582044
-0.05240822 0.12339600 -0.28174942
-0.27551198 -0.01423138 0.31016001
0.08711138 0.09406329 -0.37954199
-0.00063012 0.12339600 -0.17616164
-0.29427299 -0.00565415 0.22710974
-0.22080863 0.08087573 0.28241269
-0.29419323 0.08118895 0.29541171
-0.107333 0.10032560 0.3301642
-0.20308248 -0.06918524 -0.23046974
0.23970159 0.01007168 -0.32355201
0.10798425 0.12339600 0.32384656
-0.00129079 0.08404555 0.38343701
0.02412746 -0.00965993 -0.32355201
0.12274662 0.07987700 0.09267009
0.07514243 0.07987700 -0.27509414
-0.24716988 0.04711498 0.35556821
-0.29396001 0.01930740 -0.33121701
0.0866 0.07987700 0.28033619
-0.26879397 -0.02963400 0.27165635
0.04561072 0.07987700 0.07288106
0.26067462 -0.03348950 -0.32355201
-0.16904099 0.01379984 -0.21101597
0.28140049 0.00428270 -0.38222899
0.10975399 0.07987700 0.16320862
0.17824601 -0.08823021 0.29658153
-0.16947793 0.02195700 0.30814069
0.08993301 0.11088905 0.38343701
-0.22907485 0.06418828 -0.34195225
-0.03008334 0.12339600 -0.09184231
0.25440998 -0.01116377 -0.2076843
-0.08293328 -0.00969677 0.26257199
0.26513278 -0.06530444 -0.2272146
0.11769325 0.12339600 0.16928999
0.17824601 0.01536048 0.20896495
-0.20151167 0.06972356 0.33095558
0.00268 0.12339600 -0.15873938
0.306218 -0.02896362 -0.23029931
0.19402184 0.02898227 -0.21783084
-0.107333 0.08551426 -0.02305974
0.1061183 0.12339600 0.36862226
0.00830496 0.07987700 -0.00156043
0.18563475 -0.08565124 0.31394514
0.22694115 0.00197652 0.36956091
-0.10309592 0.12339600 -0.1571941
-0.0488633 0.12339600 0.0840248
-0.23138934 -0.08559405 0.29671176
-0.01930404 -0.02963400 0.27342234
-0.08529795 0.12339600 -0.01396686
0.12156027 0.12339600 -0.10231306
0.05883377 0.07987700 0.274637
0.30052802 0.01820000 -0.27415229
0.25149252 0.06297771 -0.34319702
0.02590263 0.07987700 -0.01681592
-0.16904099 0.03639228 0.32970465
0.01471853 0.12339600 -0.14642657
0.12457181 0.07987700 -0.11036004
0.01760077 0.04432105 0.26257199
0.00501982 0.07987700 -0.26296305
-0.25135989 -0.08571865 0.29510051
0.1972564 0.07511732 0.31482043
-0.28266865 -0.02963400 0.27625404
0.03223132 0.01536031 0.26257199
-0.04117222 0.07987700 0.22987205
0.1891502 0.07933191 0.26624853
0.10141884 0.12339600 -0.26141525
0.22635973 0.02195700 0.26957111
0.17824601 0.03472048 0.26726275
-0.29396001 -0.04309909 -0.31801221
-0.1214639 -0.01539038 -0.32355201
-0.25839869 0.04261705 0.21723039
-0.29109158 -0.02207983 0.20660712
-0.08773483 0.07987700 -0.06013745
0.00080538 0.01820000 -0.28064872
-0.1099439 0.02195700 0.29984511
-0.25691261 0.07726352 0.31520161
0.01123485 0.07987700 0.16905961
-0.07012284 0.07987700 0.2293329
0.09252751 0.12339600 -0.24361828
-0.01834048 0.12339600 0.09894926
-0.04366913 0.01820000 -0.32024601
-0.06106044 0.12339600 0.0994615
-0.09913418 0.07987700 0.17325538
0.04475145 0.12339600 0.16463833
0.08104124 0.01456243 0.26257199
0.04067237 0.12339600 0.23912548
0.2597456 0.05461135 -0.35409994
-0.10792283 0.01956541 0.26257199
-0.27033437 0.02195700 0.2752335
-0.107333 0.09422434 0.12325612
-0.19428782 -0.02963400 0.28271762
0.12163801 0.07987700 -0.33373717
0.17660201 0.01999918 -0.28714154
-0.2460755 0.06817599 -0.25617445
-0.01806972 0.05119619 -0.32355201
0.306566 0.03952846 0.29689014
0.29740944 0.01820000 -0.29296962
-0.00575877 -0.00265092 0.31016001
-0.24415634 -0.07544162 -0.3538997
-0.16904099 0.00285188 0.20680633
-0.28895101 0.00226732 0.29597577
0.28180616 0.01273716 0.31016001
-0.08936567 0.12339600 -0.19767834
-0.16904099 -0.05880885 0.28228143
-0.09565489 0.08729233 0.38343701
0.24336297 -0.04953924 0.35803467
-0.23901854 -0.00620372 0.37234653
-0.28340678 -0.06537834 0.23330957
0.11568815 0.07987700 -0.17974755
-0.06667466 0.12339600 -0.09380432
-0.09790298 0.07987700 0.13693349
0.124659 0.08136059 0.13508722
0.10944699 0.07987700 0.00274087
0.17824601 0.01320364 0.24877024
0.11237105 0.12339600 0.26533322
0.23482998 -0.05874811 0.21656602
0.19443574 0.04249825 -0.22677323
0.03624925 0.12339600 -0.16674482
0.20576876 0.08146735 0.28506324
-0.00599609 0.01820000 -0.28774134
-0.03771016 0.07987700 -0.1001331
0.19586654 0.01848949 0.20046682
-0.18740369 -0.07100110 0.2398747
0.17824601 0.02814967 0.25473167
-0.16904099 0.04876476 -0.34388466
-0.03705159 0.07987700 -0.30358925
0.07457737 0.07987700 -0.20200698
0.20048369 0.00981638 -0.32355201
-0.06557252 0.07987700 0.19977747
0.09092938 0.07987700 -0.00628299
0.306566 0.00761489 0.34237772
-0.09444416 0.07987700 0.03094558
0.24549275 0.01820000 -0.28723738
-0.21513459 -0.08869214 -0.25605942
0.11908916 0.07987700 0.29662972
0.07615681 0.12339600 0.13349184
0.10872074 0.12339600 0.21117706
0.08531726 0.12339600 0.31830126
0.07904124 0.07987700 0.03793471
-0.07927069 -0.03704500 -0.26986177
0.306218 -0.06536864 -0.26025164
0.01741962 0.11645486 0.38343701
-0.07595175 0.07987700 0.05329333
-0.29427299 -0.07806775 0.25526288
0.2251832 0.06982281 0.32738469
0.06366723 -0.01333684 0.26257199
-0.07297507 0.11826185 -0.37954199
0.17660201 -0.03858655 -0.25168775
-0.16904099 -0.04269259 -0.37422447
0.22203325 -0.01166055 0.19790883
0.0444397 0.07987700 0.36925217
-0.20010698 0.04030393 -0.22389848
0.04672377 0.12339600 -0.27757821
0.124659 0.10640500 0.01927444
