# .PCD v0.7 - Point Cloud Data file format
VERSION 0.7
FIELDS x y z
SIZE 4 4 4
TYPE F F F
COUNT 1 1 1
WIDTH 800
HEIGHT 1
VIEWPOINT 0 0 0 1 0 0 0
POINTS 800
DATA ascii
-0.34954242 0.07736098 0.08708511
-0.34980081 0.08053425 0.08617446
-0.35385720 0.09151753 0.07008661
-0.35015070 0.07700100 0.02028155
-0.35029793 0.07700100 0.00045955
-0.35068335 0.07700100 0.07113373
-0.30268188 0.08607757 0.09306634
-0.20068575 0.08378650 0.09186619
-0.27426358 0.08900217 0.09273196
-0.22542399 0.08442814 0.09215728
-0.17784351 0.08538863 0.09159742
-0.19157116 0.08880979 0.09175894
-0.07832047 0.08678133 0.09042636
-0.34052034 0.08112264 0.09351157
-0.26228919 0.08654663 0.09259106
-0.11445887 0.08463762 0.09085159
-0.03124826 0.08807296 0.08987248
-0.23725543 0.08569361 0.09229649
0.13730370 0.09210386 0.08788919
-0.34387903 0.07837969 0.09355110
-0.03663841 0.08701230 0.08993591
-0.05599260 0.09193999 0.09016364
-0.29918909 0.08100363 0.09302525
0.00825805 0.08858644 0.08940763
-0.07270784 0.09049534 0.09036032
-0.34744236 0.08255855 0.09359302
-0.09342563 0.08501266 0.09060410
-0.34132408 0.09037117 0.09352103
-0.23440882 0.08885669 0.09226300
-0.16327424 0.08539242 0.09142598
-0.30250908 0.08136557 0.09306431
-0.20849085 0.09128789 0.09195803
-0.28196406 0.08848337 0.09282256
-0.30411449 0.07843465 0.09308320
-0.28490192 0.08677653 0.09285713
-0.21668757 0.08495548 0.09205448
-0.05960380 0.08957841 0.09020613
-0.11028607 0.09165341 0.09080249
-0.33427176 0.08517880 0.09343805
-0.35154400 0.09258900 -0.00597421
-0.35016079 0.09258900 0.00018621
-0.35337178 0.07950045 0.07242304
-0.35428102 0.09258900 0.05602873
-0.35486558 0.09258900 0.00518878
-0.34845927 0.07700100 -0.01801882
-0.34896037 0.07700100 0.00489112
-0.34991677 0.07700100 -0.01841170
-0.35304847 0.07700100 0.00238051
-0.35225932 0.07700100 0.05037026
-0.14219763 0.08245959 0.09117798
0.00991963 0.08364212 0.08938807
-0.12505080 0.08217806 0.09097622
-0.26515577 0.07824770 0.09262479
-0.03271520 0.08079213 0.08988974
0.12101922 0.08762836 0.08808081
0.09138915 0.08340134 0.08842945
-0.18795825 0.08025900 0.09171643
-0.25997856 0.07835078 0.09256387
0.06257485 0.08092835 0.08876850
-0.08919702 0.08496148 0.09055434
0.11606164 0.08492146 0.08813914
-0.10454702 0.07952983 0.09073496
-0.06898763 0.08267839 0.09031655
0.01141040 0.08274972 0.08937053
0.01423418 0.08582835 0.08933731
0.00370557 0.08148294 0.08946119
0.12704651 0.09083568 0.08800988
-0.10406111 0.08015873 0.09072924
0.12883588 0.08374652 0.08798883
-0.00359821 0.08570814 0.08954713
-0.10247010 0.08100465 0.09071052
-0.27402080 0.07926473 0.09272910
0.02199126 0.08248200 0.08924603
-0.06824367 0.08028209 0.09030779
-0.05550639 0.08585101 0.09015792
-0.17224625 0.07923395 0.09153155
-0.16738252 0.07961997 0.09147432
0.14461523 0.07900839 0.08780316
0.15206738 0.09027897 0.08771547
0.03459285 0.08593472 0.08909775
0.13706263 0.08884572 0.08789203
0.05960607 0.09258900 0.03625004
0.05075571 0.09258900 0.04478995
-0.12040578 0.09258900 0.03163298
-0.04288414 0.09258900 -0.04997658
0.06157332 0.09258900 0.04802229
-0.02301405 0.09258900 0.06691867
0.05522673 0.09258900 0.06780194
-0.21906391 0.09258900 0.06726446
-0.07489172 0.09258900 0.08631574
-0.21309037 0.09258900 0.09088174
-0.00832600 0.09258900 -0.08102576
-0.08611970 0.09258900 0.00300393
0.07699596 0.09258900 0.00529260
-0.02968359 0.09258900 -0.07742136
-0.01206504 0.09258900 -0.04006672
-0.28306737 0.09258900 0.08818440
-0.19635634 0.09258900 0.00671886
0.01705307 0.09258900 -0.05372360
-0.15940498 0.09258900 0.02980841
0.09942344 0.09258900 0.05489678
-0.00923200 0.09258900 0.03458669
0.13446770 0.09258900 0.06142969
-0.00112392 0.09258900 0.08394756
-0.18875560 0.09258900 0.00053845
-0.05089442 0.09258900 0.06293556
-0.04561997 0.09258900 -0.06094358
-0.06174231 0.09258900 -0.07809238
0.00692405 0.09258900 -0.03502059
-0.06050526 0.09258900 0.05216630
-0.21139280 0.09258900 0.01051161
-0.15724674 0.09258900 0.03323462
-0.03280609 0.09258900 0.00649279
-0.06256779 0.09258900 -0.00048614
-0.01320489 0.09258900 0.03513434
-0.04798132 0.09258900 -0.04184033
-0.01626894 0.09258900 -0.08423481
-0.15263416 0.09258900 0.06361720
-0.21324188 0.09258900 0.03611802
-0.02682567 0.09258900 -0.03859850
0.02503204 0.09258900 -0.02660262
-0.11880109 0.09258900 0.07162961
-0.01671254 0.09258900 -0.01592300
-0.04036315 0.09258900 -0.05948030
0.06975887 0.09258900 0.02123148
-0.27421237 0.09258900 0.05677223
-0.06435686 0.09258900 -0.03606183
-0.10379417 0.09258900 -0.05477812
-0.01571325 0.09258900 -0.08827548
-0.06765597 0.09258900 0.01117462
-0.12410843 0.09258900 -0.03036097
-0.07700870 0.09258900 -0.07275220
-0.02209195 0.09258900 -0.02360593
0.11739219 0.09258900 0.05943283
-0.08441174 0.09258900 0.08680552
-0.17753158 0.09258900 0.08085342
0.04784242 0.09258900 0.04896239
-0.01578975 0.09258900 0.08935642
-0.08847568 0.09258900 0.05229490
-0.13409990 0.09258900 0.00954254
0.10037036 0.09258900 0.03875561
-0.06806940 0.09258900 0.00219259
-0.27154266 0.09258900 0.06814834
-0.12177897 0.09258900 -0.00322584
-0.23270951 0.09258900 0.05239438
-0.03476496 0.09258900 0.08802657
-0.10508908 0.09258900 -0.05449265
-0.05264207 0.09258900 0.03587430
-0.16770588 0.09258900 0.04777570
-0.26104235 0.09258900 0.04332529
-0.04963091 0.09258900 -0.00485205
-0.01502785 0.09258900 -0.01075834
-0.08971412 0.09258900 -0.00961468
-0.12179868 0.09258900 0.04907572
-0.05187903 0.09258900 -0.02691249
-0.06512150 0.09258900 0.04845973
-0.00852126 0.09258900 0.04007074
-0.05408532 0.09258900 0.06102023
-0.21303622 0.09258900 0.03170237
0.00241159 0.09258900 -0.06688793
-0.09938371 0.09258900 0.04885844
0.01561524 0.09258900 -0.06458153
-0.03895382 0.09258900 0.08685284
0.04451880 0.09258900 0.05847672
-0.14930773 0.09258900 0.07527845
-0.26599000 0.09258900 0.06515851
-0.00505603 0.09258900 0.00204040
-0.00027188 0.09258900 -0.04179175
0.07504125 0.09258900 0.03103000
-0.18457110 0.09258900 0.09146020
-0.14265473 0.09258900 0.02406928
-0.17633524 0.09258900 0.06515182
-0.09175569 0.09258900 0.07706200
0.09317370 0.09258900 0.03257859
-0.07911576 0.09258900 -0.00535641
-0.32503315 0.09258900 0.09185990
-0.18303716 0.09258900 0.06128273
-0.04603157 0.09258900 -0.00427362
-0.18902357 0.09258900 0.07858564
0.01394584 0.09258900 0.03890560
0.07674666 0.09258900 0.01014537
-0.04037708 0.09258900 -0.05282329
-0.10549762 0.09258900 0.04868190
-0.03699809 0.09258900 -0.05147533
0.06691167 0.09258900 0.07676159
-0.07871831 0.09258900 0.04957439
-0.10589162 0.09258900 -0.01714368
-0.12973665 0.09258900 -0.01534855
-0.23380141 0.09258900 0.08532607
0.05635254 0.09258900 -0.00590480
-0.12200841 0.09258900 0.04427333
0.03995926 0.09258900 0.02405735
-0.25681887 0.09258900 0.07042614
-0.11729712 0.09258900 0.01238886
-0.05302791 0.09258900 0.01623963
0.08710191 0.09258900 0.03622201
-0.07847783 0.09258900 -0.06388085
-0.19245145 0.09258900 0.00880731
-0.08682611 0.09258900 0.05810079
0.06635877 0.09258900 0.07827349
0.04216822 0.09258900 0.04218190
0.00186331 0.09258900 0.05795232
-0.14360221 0.09258900 -0.02349432
-0.18123356 0.09258900 -0.00011366
0.12594475 0.09258900 0.05723970
-0.02069181 0.09258900 -0.01710384
-0.10768686 0.09258900 0.02503053
-0.09576772 0.09258900 0.05226512
-0.03654726 0.09258900 0.06087739
-0.15693785 0.09258900 -0.01581312
0.05914915 0.09258900 0.07749302
0.08497397 0.09258900 0.05605834
0.01165790 0.09258900 -0.04137317
0.01070025 0.09258900 0.01842806
-0.23391665 0.09258900 0.05941682
0.00244985 0.09258900 -0.00373794
-0.25087694 0.09258900 0.04556888
-0.12319050 0.09258900 0.01536762
-0.09534841 0.09258900 0.02698671
-0.00064192 0.09258900 0.06064510
-0.03233761 0.09258900 -0.07779270
-0.01065076 0.09258900 -0.01768201
-0.26893553 0.09258900 0.05757523
-0.17428341 0.09258900 0.00800023
0.08424590 0.09258900 0.04979181
-0.00856451 0.09258900 -0.04496839
-0.09644009 0.09258900 -0.01193113
-0.07962142 0.09258900 0.04202416
-0.00050632 0.09258900 0.08450389
-0.15977881 0.09258900 0.02086644
-0.07718618 0.09258900 0.08256580
0.10156387 0.09258900 0.03343038
-0.14463423 0.09258900 0.07076039
-0.00307813 0.09258900 0.05716855
-0.21530418 0.09258900 0.09021244
0.00128439 0.09258900 0.05265460
-0.02767763 0.09258900 0.02188277
-0.17673771 0.09258900 -0.00871207
-0.15185383 0.09258900 -0.01588051
-0.13554910 0.09258900 0.02330549
-0.31443383 0.09258900 0.07575751
-0.02806789 0.09258900 -0.00954147
-0.26160432 0.09258900 0.04992079
0.05834176 0.09258900 0.01183516
-0.19723735 0.09258900 0.04993154
0.07135274 0.09258900 0.02831296
0.10753344 0.09258900 0.07595791
0.04169000 0.09258900 0.06193037
-0.02991187 0.09258900 -0.07949834
-0.16891012 0.09258900 0.08799104
0.01086113 0.09258900 0.05610106
0.03233787 0.09258900 0.08055350
-0.12988691 0.09258900 0.04993876
0.01712506 0.09258900 -0.06422674
-0.02253492 0.09258900 0.01342294
-0.28230207 0.09258900 0.08999760
-0.13408732 0.09258900 0.00866324
-0.22476651 0.09258900 0.05479801
-0.06505744 0.09258900 -0.02094288
0.07642705 0.09258900 0.06894795
-0.28768787 0.09258900 0.09138934
-0.23666076 0.09258900 0.08419479
0.06319710 0.09258900 -0.01588295
0.03533667 0.09258900 0.08295233
-0.13235306 0.09258900 0.04331747
0.06651924 0.09258900 0.06264393
-0.04867829 0.09258900 -0.00282129
-0.11717149 0.09258900 0.00826664
-0.19520656 0.09258900 0.07684041
0.10708860 0.09258900 0.05967275
-0.19922019 0.09258900 0.02157870
-0.23557972 0.09258900 0.04390156
-0.04945571 0.09258900 -0.02405706
-0.14328543 0.09258900 0.06343621
-0.01801864 0.09258900 -0.08238748
-0.11065523 0.09258900 0.05929005
0.10677208 0.09258900 0.07234330
-0.08832116 0.09258900 0.03869492
-0.11308609 0.09258900 0.04015774
-0.05711825 0.09258900 0.07350102
-0.05485856 0.09258900 -0.01404275
-0.30516009 0.09258900 0.09073669
-0.13803928 0.09258900 -0.01775622
-0.13604078 0.09258900 0.07103321
-0.04530298 0.09258900 -0.04713363
0.04405284 0.09258900 -0.03380209
-0.07886310 0.09258900 -0.04514085
-0.02786924 0.09258900 0.05324965
-0.05239595 0.09258900 0.03003500
-0.08943956 0.09258900 -0.00494745
-0.10089367 0.09258900 -0.02197549
-0.18493438 0.09258900 0.08441294
0.08192164 0.09258900 0.06326749
-0.16382831 0.09258900 0.06626584
0.06949048 0.09258900 0.04895479
-0.23077003 0.09258900 0.03844088
0.04845393 0.09258900 0.06516527
0.01542926 0.09258900 -0.01567144
-0.11985140 0.09258900 0.04512443
0.01615764 0.09258900 0.02265215
-0.17956793 0.09258900 0.05629618
0.06616373 0.09258900 0.08003259
-0.04870367 0.09258900 -0.06409848
-0.12088182 0.09258900 -0.02760222
-0.07622779 0.09258900 -0.03229041
-0.28044557 0.09258900 0.06171433
0.07115657 0.09258900 -0.00335614
0.01964958 0.09258900 -0.01809977
0.07654404 0.09258900 0.02322647
0.14410245 0.09258900 0.07721287
-0.25602604 0.09258900 0.09116658
0.07773477 0.09258900 0.05328088
0.02852881 0.09258900 -0.05784195
-0.07558417 0.09258900 0.06899496
0.07894233 0.09258900 0.08598830
-0.02563385 0.09258900 0.02153859
-0.03056708 0.09258900 0.00672843
-0.03146683 0.09258900 0.01222621
-0.10726265 0.09258900 -0.04371421
-0.08960506 0.09258900 0.06461376
-0.29666800 0.09258900 0.07585027
0.02940212 0.09258900 0.03447345
-0.03943050 0.09258900 -0.00785721
0.02659419 0.09258900 0.07850756
-0.11027784 0.09258900 0.08094345
-0.10910590 0.09258900 -0.04371052
-0.02825888 0.09258900 -0.06583373
-0.00397496 0.09258900 0.04229318
-0.24000839 0.09258900 0.06492547
-0.27139373 0.09258900 0.05038928
0.12103153 0.09258900 0.07144267
0.11696533 0.09258900 0.05768468
-0.02043246 0.09258900 -0.05109052
-0.07120463 0.09258900 0.00976743
-0.16011928 0.09258900 -0.01406939
-0.09890262 0.09258900 0.07822368
0.08591243 0.09258900 0.01856022
-0.02236976 0.09258900 -0.07397123
-0.09222052 0.09258900 0.02488866
-0.09452352 0.09258900 -0.01570258
-0.01971490 0.09258900 -0.02707039
0.08268301 0.09258900 0.03577497
-0.24948599 0.09258900 0.05069748
-0.20276438 0.09258900 0.02114041
-0.05955459 0.09258900 -0.06447564
-0.00917233 0.09258900 -0.07312724
-0.04750417 0.09258900 -0.05678474
-0.25066527 0.09258900 0.05302235
-0.03544396 0.09258900 0.07362485
-0.07845365 0.09258900 -0.01052843
0.05558367 0.09258900 0.06867504
0.10141837 0.09258900 0.04518861
-0.06399233 0.09258900 0.00545107
0.11794916 0.09258900 0.08170870
-0.08856131 0.09258900 0.06700357
0.01422675 0.09258900 -0.07794024
0.00286130 0.09258900 0.02349957
0.02651551 0.09258900 -0.04677079
0.00380204 0.09258900 -0.02173661
-0.11250106 0.09258900 0.04275100
-0.15443221 0.09258900 0.07780492
-0.29361935 0.09258900 0.06208425
0.08422214 0.09258900 0.00910798
-0.08873057 0.09258900 -0.06304385
0.05695883 0.09258900 0.00048614
-0.26727862 0.09258900 0.09220763
-0.15297266 0.09258900 0.02410028
0.10532902 0.09258900 0.05455391
-0.25425483 0.09258900 0.07556375
0.04469521 0.09258900 0.07360260
-0.17233492 0.09258900 0.01651442
-0.15079850 0.09258900 -0.02539978
0.03459915 0.09258900 -0.00275561
0.03077365 0.09258900 -0.05281771
-0.30169192 0.09258900 0.09133345
-0.13107419 0.09258900 0.00360663
0.00842752 0.09258900 0.06002979
-0.17762072 0.09258900 0.06340816
0.09826118 0.09258900 0.07424260
-0.16622998 0.09258900 0.01546963
0.14565459 0.09258900 0.07954208
-0.23938966 0.09258900 0.08468901
-0.07901944 0.09258900 0.00484150
0.02790179 0.09258900 0.05572064
0.10156485 0.09258900 0.06121154
-0.15643050 0.09258900 0.05362618
-0.06898712 0.09258900 0.07383454
0.06067917 0.09258900 0.04185247
-0.02314943 0.09258900 -0.08264613
0.00968582 0.09258900 0.06820418
-0.06652739 0.09258900 0.07410442
0.03760351 0.09258900 0.05938014
-0.22373744 0.09258900 0.07892594
-0.10044980 0.09258900 -0.04062938
-0.07476785 0.09258900 -0.07038964
-0.22055317 0.09258900 0.06716110
-0.23102847 0.09258900 0.09076533
-0.07449205 0.09258900 0.04469520
-0.15614821 0.09258900 0.03954721
-0.05445540 0.09258900 -0.04673431
0.02470662 0.09258900 -0.01225602
-0.06765914 0.09258900 0.07312804
-0.11004489 0.09258900 0.05390015
-0.22468007 0.09258900 0.02211412
-0.11152643 0.09258900 -0.04337350
-0.20753269 0.09258900 0.08049472
-0.11299164 0.09258900 0.08429960
-0.09293774 0.09258900 -0.04286889
-0.04046945 0.09258900 -0.06822410
-0.09741035 0.09258900 0.02593829
-0.16832531 0.09258900 0.03133264
-0.26214837 0.09258900 0.07136530
-0.03280476 0.09258900 0.00776350
-0.14242878 0.09258900 0.06922471
-0.04820090 0.09258900 0.05463409
-0.28585290 0.09258900 0.06759399
-0.18712996 0.09258900 0.06701180
-0.24048048 0.09258900 0.06065320
0.06334094 0.09258900 0.05326205
-0.04378909 0.09258900 -0.02364346
-0.19420520 0.09258900 0.07981904
-0.23974926 0.09258900 0.06536546
-0.04902973 0.09258900 -0.05986668
-0.25848894 0.09258900 0.05327536
-0.14382110 0.09258900 0.02115356
-0.04561205 0.09258900 0.06231645
-0.03333456 0.09258900 -0.09566302
-0.15276288 0.09258900 0.08396926
-0.09189979 0.09258900 -0.04654745
0.00203520 0.09258900 0.01780847
-0.25379772 0.09258900 0.05583742
0.11526590 0.09258900 0.07579767
-0.12667588 0.09258900 -0.03288915
-0.10868874 0.09258900 0.08765003
-0.08892932 0.09258900 0.03934561
-0.01041011 0.09258900 0.05420103
-0.20304937 0.09258900 0.00776149
0.05612740 0.09258900 0.00704404
0.09459250 0.09258900 0.06033645
-0.02507774 0.09258900 0.08490652
0.00149789 0.09258900 0.03393443
-0.09174336 0.09258900 0.04693267
-0.07690163 0.09258900 0.07947681
-0.02082556 0.09258900 -0.00180623
0.02582423 0.09258900 -0.05635078
-0.07330313 0.09258900 0.03938177
-0.21748692 0.09258900 0.08091516
-0.17461039 0.09258900 0.08070557
0.03278509 0.09258900 0.05617181
-0.21786453 0.09258900 0.02208448
0.01254479 0.09258900 0.06953279
-0.13850220 0.09258900 -0.00002511
0.05465590 0.09258900 -0.02726024
-0.01998977 0.09258900 0.02204645
0.09977885 0.09258900 0.05608612
0.01413205 0.09258900 -0.05416336
-0.16467719 0.09258900 0.03562245
-0.18702970 0.09258900 0.07148845
-0.05973602 0.09258900 -0.05559621
-0.11250692 0.09258900 0.03437268
0.13307630 0.09258900 0.07809756
-0.06193578 0.09258900 -0.01114401
-0.07808188 0.09258900 0.04790744
-0.10112811 0.09258900 0.04857123
-0.14652524 0.09258900 0.01992809
0.10259754 0.09258900 0.07960029
-0.04576330 0.09258900 -0.02322924
-0.14355850 0.09258900 0.02523633
-0.13689919 0.09258900 0.05743616
0.04564477 0.09258900 -0.01867219
-0.12076202 0.09258900 0.01019657
-0.02345223 0.09258900 -0.06310942
-0.00055434 0.09258900 0.06996461
-0.18144871 0.09258900 0.05945234
0.00651611 0.09258900 0.05845975
-0.23524685 0.09258900 0.05545089
-0.24675261 0.09258900 0.07333512
-0.23564278 0.09258900 0.05583321
0.09079144 0.09258900 0.05903400
-0.07624068 0.09258900 0.05076914
-0.21934365 0.09258900 0.07752126
0.04136006 0.09258900 -0.03012985
-0.12569240 0.09258900 0.03975900
-0.25598094 0.09258900 0.06970631
-0.15187165 0.09258900 0.01054737
-0.03648231 0.09258900 -0.01468664
0.00084520 0.09258900 0.00539254
-0.07495980 0.09258900 0.07627466
-0.17189610 0.09258900 0.06203025
-0.12346961 0.09258900 0.07882546
0.00097306 0.09258900 -0.09200042
-0.13115860 0.09258900 0.06267349
-0.13248938 0.09258900 -0.00554953
-0.28845466 0.09258900 0.07015296
0.03837983 0.09258900 -0.00039945
-0.02239628 0.09258900 0.07444116
-0.30833521 0.09258900 0.07309049
-0.10559015 0.09258900 0.00193900
-0.08215961 0.09258900 0.06733759
-0.07471905 0.09258900 -0.06717762
-0.22810146 0.09258900 0.04026368
0.04988890 0.09258900 0.05035149
-0.24940187 0.09258900 0.04495613
-0.10365017 0.09258900 -0.04139176
-0.34720133 0.09258900 -0.00545044
-0.34651105 0.09258900 -0.03539253
-0.34923109 0.09258900 -0.04298810
-0.35210072 0.09258900 -0.00453162
-0.35328380 0.09258900 0.01943768
-0.35630787 0.08283133 0.05753360
-0.35386072 0.07700100 0.06616662
-0.35409009 0.07700100 0.06438853
-0.34299790 0.07700100 -0.02757465
-0.34256292 0.07700100 -0.03107168
-0.34698280 0.07700100 0.02872013
-0.34321499 0.07700100 -0.01068722
-0.34768707 0.08006646 -0.05581191
-0.34877786 0.08156929 -0.05225245
-0.35178725 0.07843241 -0.04179667
-0.13484603 0.07700100 0.07331593
-0.12036874 0.07700100 -0.01101971
-0.10258940 0.07700100 0.00861709
-0.07952719 0.07700100 0.00929685
0.01956611 0.07700100 -0.07080290
-0.10638070 0.07700100 -0.04004058
-0.11875735 0.07700100 0.05640084
-0.03729059 0.07700100 -0.05691054
-0.17550099 0.07700100 0.01136730
-0.07698251 0.07700100 -0.05559203
-0.13326219 0.07700100 -0.02248816
0.03992892 0.07700100 -0.04336559
-0.00135411 0.07700100 0.06645050
0.01986749 0.07700100 -0.01528466
-0.07397147 0.07700100 -0.02849077
0.00190379 0.07700100 -0.01150538
-0.02896525 0.07700100 0.08559688
0.00331075 0.07700100 -0.05773623
-0.29128459 0.07700100 0.08455280
-0.18250689 0.07700100 0.03850205
-0.20664052 0.07700100 0.05397600
0.00261717 0.07700100 -0.03282063
-0.06835511 0.07700100 -0.04202021
-0.03541350 0.07700100 -0.06163105
0.01435805 0.07700100 0.00490050
-0.21597124 0.07700100 0.01315750
0.06585082 0.07700100 0.02701762
-0.12366209 0.07700100 -0.01306959
-0.33084366 0.07700100 0.08724542
-0.09614575 0.07700100 0.08979120
0.03409749 0.07700100 0.06297119
-0.09887000 0.07700100 0.06864771
-0.01912266 0.07700100 -0.02077073
-0.16417702 0.07700100 0.03881152
0.11770128 0.07700100 0.07355505
-0.16146279 0.07700100 0.03416839
-0.04901384 0.07700100 -0.05784375
-0.23292658 0.07700100 0.05391086
0.12478745 0.07700100 0.05010164
0.08462835 0.07700100 0.07174630
0.07587704 0.07700100 0.05236742
-0.13450006 0.07700100 0.05424698
-0.18144370 0.07700100 0.00884487
0.02027220 0.07700100 -0.06755785
0.10266609 0.07700100 0.07587681
-0.22276389 0.07700100 0.05792803
-0.23694106 0.07700100 0.09181402
-0.11726055 0.07700100 -0.02917258
-0.21904384 0.07700100 0.08311498
-0.21719340 0.07700100 0.01878951
0.02511116 0.07700100 0.04953492
-0.04185989 0.07700100 0.02095302
-0.03596790 0.07700100 -0.01161550
-0.12982477 0.07700100 0.07640561
-0.05935300 0.07700100 0.08382958
-0.24539115 0.07700100 0.08344072
-0.06582888 0.07700100 -0.01214732
0.06135082 0.07700100 0.02333238
-0.14907363 0.07700100 0.08360975
0.01392795 0.07700100 -0.04085836
-0.01530073 0.07700100 0.05584467
-0.00163793 0.07700100 -0.09661519
-0.05509235 0.07700100 -0.07666603
0.02661827 0.07700100 0.02019822
0.00545412 0.07700100 0.02760806
-0.06470717 0.07700100 -0.03555845
-0.00347945 0.07700100 -0.08595160
-0.08624076 0.07700100 0.03286472
-0.13362402 0.07700100 0.00215833
-0.23867965 0.07700100 0.08466396
0.00933952 0.07700100 -0.01544879
0.01796283 0.07700100 -0.01788801
0.10112798 0.07700100 0.07897277
-0.03951124 0.07700100 0.02285742
-0.14494146 0.07700100 -0.00882203
0.09232192 0.07700100 0.04325384
-0.13659532 0.07700100 0.01393049
-0.03949551 0.07700100 -0.08150238
0.08896028 0.07700100 0.06091289
-0.01179768 0.07700100 -0.09720814
0.02569654 0.07700100 0.06998219
-0.12167242 0.07700100 -0.02092023
-0.17188561 0.07700100 0.07645823
-0.03368211 0.07700100 0.08455439
0.06941620 0.07700100 -0.00414281
-0.00878009 0.07700100 -0.07524315
0.04328291 0.07700100 0.02921296
-0.06319040 0.07700100 -0.08057625
-0.26840082 0.07700100 0.08309828
-0.04338355 0.07700100 -0.04531025
-0.05830094 0.07700100 -0.00785700
0.10630309 0.07700100 0.03862382
-0.03597919 0.07700100 0.04483828
0.01733058 0.07700100 -0.05612813
0.09220642 0.07700100 0.03569470
-0.00332370 0.07700100 -0.03274227
-0.07949716 0.07700100 0.02381528
-0.17465116 0.07700100 -0.00403326
0.04884692 0.07700100 -0.00037883
-0.26653004 0.07700100 0.09192545
0.00179069 0.07700100 -0.05744101
-0.24576527 0.07700100 0.08404726
-0.10191448 0.07700100 0.00148548
0.07503647 0.07700100 0.00605842
0.08855851 0.07700100 0.06124727
-0.01438625 0.07700100 0.08601666
0.05889196 0.07700100 0.06463075
-0.11462184 0.07700100 0.03201771
0.07097787 0.07700100 0.01004255
0.07393210 0.07700100 0.08380524
-0.11638008 0.07700100 0.00059898
0.01890348 0.07700100 0.06085700
-0.01335183 0.07700100 -0.02945694
-0.13917163 0.07700100 0.05385557
-0.19911975 0.07700100 0.02805309
-0.00208367 0.07700100 -0.02852474
0.12381181 0.07700100 0.05507798
-0.27478664 0.07700100 0.06167519
-0.21150521 0.07700100 0.05456289
0.01312301 0.07700100 0.00196101
0.12587771 0.07700100 0.06478148
-0.14200642 0.07700100 0.02378728
-0.19278431 0.07700100 0.05863001
-0.11066472 0.07700100 0.03571702
-0.03109978 0.07700100 -0.07615044
-0.19737287 0.07700100 0.00882720
0.05825706 0.07700100 0.00756704
-0.06416822 0.07700100 0.00323559
-0.01594683 0.07700100 -0.05150993
0.13670899 0.07700100 0.08312778
-0.02053683 0.07700100 0.04089910
-0.16611928 0.07700100 0.00510184
-0.16927117 0.07700100 0.03262694
-0.07918836 0.07700100 0.05656408
0.00833410 0.07700100 0.04861676
-0.10050653 0.07700100 -0.01802750
0.13736665 0.07700100 0.06862476
0.04978543 0.07700100 0.02284990
-0.11643347 0.07700100 0.07867968
0.10804883 0.07700100 0.05368739
0.02277462 0.07700100 0.08165281
-0.07335219 0.07700100 -0.03250860
-0.06003715 0.07700100 0.07486821
-0.26968676 0.07700100 0.08102962
-0.21235859 0.07700100 0.06386350
-0.18137590 0.07700100 0.04285581
-0.01465584 0.07700100 -0.07985254
-0.13132627 0.07700100 0.02363679
-0.13603790 0.07700100 0.02444360
-0.00953017 0.07700100 0.07448522
-0.09644907 0.07700100 0.00531536
0.01269763 0.07700100 0.01584066
-0.01428260 0.07700100 -0.05598739
-0.00856412 0.07700100 0.03954601
-0.07260301 0.07700100 0.06478874
-0.05609357 0.07700100 0.03677974
0.04494131 0.07700100 0.00813525
-0.24973658 0.07700100 0.06362632
-0.05427069 0.07700100 0.02510222
-0.07159900 0.07700100 0.02843815
0.11320972 0.07700100 0.04012648
0.09370123 0.07700100 0.02678175
-0.00887207 0.07700100 0.00354127
-0.17945732 0.07700100 0.07910637
-0.01587671 0.07700100 0.04190966
-0.10503922 0.07700100 0.07511819
-0.09117223 0.07700100 -0.03665668
-0.05841887 0.07700100 -0.06727741
-0.24557262 0.07700100 0.03611230
0.00731573 0.07700100 0.04475739
0.00825626 0.07700100 0.06084631
0.03746692 0.07700100 0.00465958
0.14299019 0.07700100 0.07620744
-0.17130585 0.07700100 0.05103109
-0.27799920 0.07700100 0.08216325
-0.04172358 0.07700100 -0.07111410
-0.05944459 0.07700100 -0.04914488
0.00628079 0.07700100 0.00788954
-0.00295764 0.07700100 0.06102478
-0.01707118 0.07700100 0.06105045
-0.06419961 0.07700100 -0.07314138
0.06965208 0.07700100 0.04108488
-0.00502147 0.07700100 0.05821214
0.00141998 0.07700100 -0.07960698
-0.01384069 0.07700100 -0.10637804
0.07491811 0.07700100 0.00225944
-0.10123884 0.07700100 0.07461078
-0.09762433 0.07700100 0.03613718
-0.14039042 0.07700100 0.07715576
-0.02338519 0.07700100 0.01937558
-0.00723895 0.07700100 -0.09677925
-0.00075847 0.07700100 0.08518594
-0.01421247 0.07700100 0.03424729
-0.03334384 0.07700100 -0.08937222
-0.12763168 0.07700100 -0.00342641
-0.30440579 0.07700100 0.07575872
0.02997978 0.07700100 0.01142077
0.03626336 0.07700100 0.04497421
0.02463729 0.07700100 -0.05988562
-0.03163841 0.07700100 -0.05173076
-0.19738832 0.07700100 0.04661076
-0.02186360 0.07700100 0.00439917
-0.02214036 0.07700100 -0.01482563
-0.16292323 0.07700100 0.00894536
-0.04348984 0.07700100 -0.02825247
-0.20708461 0.07700100 0.05508601
0.08497589 0.07700100 0.03652505
0.11577854 0.07700100 0.08615660
0.09411203 0.07700100 0.01895857
-0.01384686 0.07700100 -0.10839376
-0.22905681 0.07700100 0.03567485
-0.04898384 0.07700100 0.01703499
0.11044741 0.07700100 0.07279635
0.00988749 0.07700100 0.01022404
-0.02151976 0.07700100 -0.01282600
-0.02485487 0.07700100 -0.07635032
-0.14132037 0.07700100 0.06338308
-0.00916460 0.07700100 0.07864469
-0.02716951 0.07700100 0.00714007
-0.23037254 0.07700100 0.04296421
-0.12901434 0.07700100 0.01281411
0.04363558 0.07700100 -0.01620959
-0.04426351 0.07700100 -0.02593194
-0.10889017 0.07700100 -0.02928382
-0.16493358 0.07700100 0.06444648
-0.01982514 0.07700100 0.05174577
-0.08669657 0.07700100 -0.04125496
-0.07134117 0.07700100 0.00969851
0.04618486 0.07700100 0.06740016
0.09469988 0.07700100 0.04961993
-0.03364870 0.07700100 0.01227787
-0.00798363 0.07700100 0.04746025
-0.00758867 0.07700100 0.06498894
0.03685418 0.07700100 -0.04777759
-0.07090173 0.07700100 0.02760400
-0.04979907 0.07700100 -0.01129903
-0.08236968 0.07700100 0.02509054
-0.01329389 0.07700100 -0.09817688
-0.11809139 0.07700100 0.04467373
0.06982002 0.07700100 0.00845729
-0.16504410 0.07700100 0.00649350
-0.03179341 0.07700100 0.04035358
0.01112689 0.07700100 -0.04429116
-0.09239978 0.07700100 0.07455691
-0.02071664 0.07700100 -0.07876472
0.10495904 0.07700100 0.04878936
0.01045561 0.07700100 -0.05565161
0.03614909 0.07700100 -0.02219467
-0.20782863 0.07700100 0.05959714
-0.08931523 0.07700100 -0.00691032
-0.02333203 0.07700100 0.08100747
-0.13988303 0.07700100 0.00410362
-0.18347918 0.07700100 0.05927528
-0.20198758 0.07700100 0.05298036
-0.24979479 0.07700100 0.05175755
-0.21241232 0.07700100 0.09106533
-0.10384407 0.07700100 -0.00955693
-0.23591973 0.07700100 0.08608397
-0.08377405 0.07700100 0.03421462
-0.12667794 0.07700100 -0.00953639
-0.10290665 0.07700100 -0.04187732
0.02510731 0.07700100 0.07265795
-0.02015529 0.07700100 -0.02590111
0.00344961 0.07700100 0.07103257
0.00164990 0.07700100 0.03947535
-0.11062117 0.07700100 0.07025063
-0.07734294 0.07700100 -0.01658862
-0.11020751 0.07700100 -0.01247016
-0.13704553 0.07700100 0.00024623
0.00476758 0.07700100 -0.08134304
-0.17618790 0.07700100 0.02216286
-0.11061546 0.07700100 0.00931487
-0.11033498 0.07700100 0.03472144
0.06844222 0.07700100 -0.00684821
-0.29123389 0.07700100 0.07164481
-0.05896540 0.07700100 -0.06358625
0.03698574 0.07700100 -0.03717293
0.02601130 0.07700100 0.00017606
-0.00722289 0.07700100 -0.08456765
-0.01945108 0.07700100 0.05122461
-0.12282196 0.07700100 0.08958006
