# .PCD v0.7 - Point Cloud Data file format
VERSION 0.7
FIELDS x y z
SIZE 4 4 4
TYPE F F F
COUNT 1 1 1
WIDTH 1388
HEIGHT 1
VIEWPOINT 0 0 0 1 0 0 0
POINTS 1388
DATA ascii
0.15513097 0.22730734 -0.09963472
-0.07633988 0.15403011 0.13921910
-0.03949587 0.15107804 0.14676454
0.01114305 0.20882538 0.05873029
0.06024624 0.19784391 0.04918289
0.09125162 0.20008785 0.03614316
0.11594235 0.21755832 0.02675755
0.12190178 0.22066173 0.02317945
-0.04556506 0.22460258 0.04564105
-0.03111602 0.21456215 0.04769743
-0.00232725 0.20617101 0.05412331
-0.08528009 0.22868328 0.01279731
-0.10676966 0.22748213 -0.05544780
-0.09311105 0.22797842 -0.12499472
-0.05038842 0.22885723 -0.17751177
0.13246549 0.22883633 -0.15143387
0.14262307 0.21813725 -0.00945766
0.13214678 0.21154382 0.00153302
0.15122907 0.22058680 -0.03004343
0.15714874 0.22521717 -0.08627684
0.15817887 0.22485413 -0.04749383
0.15551826 0.21994816 -0.05077932
0.13902515 0.22299553 -0.13075855
-0.07306979 0.15999667 0.14054952
-0.06402748 0.12597573 0.13008053
-0.05611090 0.15108166 0.16095926
0.03261217 0.19297085 0.05216586
0.06214397 0.18735114 0.04486812
0.07440712 0.18900577 0.04112934
0.10122545 0.20414448 0.03230651
0.10227256 0.20007018 0.02878079
-0.06822889 0.21429568 0.01863749
-0.03207985 0.20775160 0.04332481
-0.01781462 0.20003321 0.04723876
-0.07534008 0.22362129 0.01867848
-0.09180883 0.22534209 -0.00600526
-0.09577334 0.22479943 -0.01346216
-0.10624145 0.22702031 -0.05951684
-0.09343100 0.22735854 -0.12291314
-0.03195176 0.21650817 -0.17714930
-0.00874153 0.22874517 -0.19546441
-0.01805007 0.22268434 -0.18731423
0.01594978 0.21444588 -0.19022953
0.10969860 0.22716340 -0.16947653
0.12702565 0.20973015 0.00876795
0.14919885 0.21171664 -0.04105162
0.12703303 0.22756048 -0.15283062
0.14519382 0.21442211 -0.10827779
0.15532755 0.21959471 -0.06796906
0.13802290 0.21130010 -0.11980583
-0.06829502 0.15630750 0.15419715
-0.04295925 0.12713652 0.14517447
-0.04600681 0.15045333 0.15581601
0.01910349 0.18818765 0.05060027
0.04486107 0.18324755 0.04810897
0.09121579 0.18510145 0.02995390
0.12338992 0.20513284 0.01074617
-0.06401675 0.20963989 0.01953030
-0.02792235 0.19594669 0.03985955
-0.04789774 0.19731977 0.02815309
-0.00709344 0.19187656 0.04686030
0.01004320 0.18468538 0.04901909
-0.08450909 0.21654000 -0.00290784
-0.09509410 0.21686583 -0.02737571
-0.10296462 0.22295095 -0.04400376
-0.10093579 0.21763780 -0.06786576
-0.09954298 0.21507044 -0.07425855
-0.09893734 0.22249576 -0.09879913
-0.08678763 0.22411529 -0.13008226
-0.06782479 0.22760149 -0.15878171
-0.04171220 0.21759762 -0.17219737
0.00055622 0.22069054 -0.19117858
0.02654390 0.21150267 -0.18863260
0.09074355 0.21879035 -0.17542751
0.12229626 0.22259963 -0.15298823
0.13008224 0.22127097 -0.14418113
0.05881154 0.22022217 -0.18929905
0.13574398 0.20219692 -0.01280913
0.14032089 0.20132370 -0.02541375
0.14419506 0.20465987 -0.09438937
0.15048146 0.21051349 -0.05953440
0.13604022 0.20562176 -0.11833580
0.13201178 0.20945804 -0.12861734
-0.07944800 0.13078760 0.13999789
-0.05905723 0.14326908 0.16585193
0.02231370 0.17509614 0.04671275
0.05954866 0.17790596 0.04248827
0.08617288 0.17896004 0.03056326
0.10811400 0.19004441 0.01762823
-0.07891824 0.19913789 -0.00939381
-0.07133337 0.20253120 0.00666967
-0.03519225 0.19021392 0.03343734
-0.06284028 0.18034665 0.00508803
-0.01474130 0.18809293 0.04352986
-0.07598310 0.21001475 0.00505421
-0.09161189 0.20664465 -0.03381427
-0.10155747 0.21878262 -0.05493229
-0.09831257 0.21377213 -0.08285433
-0.09869860 0.21453789 -0.08301830
-0.08931014 0.21344115 -0.11413956
-0.06445214 0.21826695 -0.15418010
-0.05499845 0.22291778 -0.16719834
-0.02316950 0.20953769 -0.17807179
-0.01682051 0.20935555 -0.18037646
-0.00054825 0.20850995 -0.18435821
0.01787368 0.20471466 -0.18568210
0.10112373 0.22044710 -0.17047052
0.07178775 0.22080500 -0.18614848
0.11323781 0.21932155 -0.15953417
0.13219618 0.19236133 -0.01449040
0.14840870 0.20754441 -0.04525274
0.14862241 0.20784215 -0.04555520
0.13892345 0.19740410 -0.10200035
0.14428969 0.19612698 -0.05599939
0.12410550 0.20396240 -0.13758575
-0.07459300 0.12656374 0.13475449
-0.04323411 0.13950645 0.15591492
0.01880621 0.17334564 0.04631077
0.06624613 0.16333372 0.03723029
0.07408289 0.16275577 0.03324660
0.10376318 0.18380430 0.01909357
0.10731708 0.18636105 0.01672203
-0.07247097 0.19300466 -0.00299502
-0.03024908 0.18042703 0.03259746
-0.06173387 0.17971261 0.00590136
-0.07055183 0.18393324 -0.00560158
-0.01180750 0.17811394 0.04103846
-0.08857205 0.20349911 -0.02769706
-0.09633859 0.20862581 -0.07553043
-0.09037817 0.20806764 -0.10187601
-0.08843957 0.20596241 -0.10561015
-0.08143144 0.20710661 -0.12183506
-0.04938273 0.20214433 -0.15832184
-0.02791909 0.19621772 -0.16871201
-0.00086526 0.20061068 -0.18075485
0.03032765 0.20287860 -0.18489100
0.07458098 0.20458135 -0.17672184
0.08979430 0.21074199 -0.17099728
0.04932615 0.20262684 -0.18295870
0.12563396 0.21076952 -0.14064698
0.11724946 0.17964954 0.00308160
0.13874093 0.19144415 -0.03434758
0.13733709 0.18969699 -0.09740318
0.14220774 0.18997411 -0.05036395
0.12634330 0.18660140 -0.12059685
0.13071460 0.18357220 -0.11104219
-0.05394773 0.11163992 0.13764079
-0.06266137 0.13127730 0.17116926
0.03147111 0.15808600 0.04320748
0.06283629 0.15714576 0.03717640
0.08247828 0.16192295 0.02822631
0.09410857 0.16879970 0.02323046
-0.08402074 0.18015491 -0.04341765
-0.02833617 0.17490937 0.03209134
-0.05334222 0.17602248 0.01301357
-0.07104289 0.17233451 -0.01271903
-0.07666286 0.17540825 -0.02104312
0.00551516 0.16348986 0.04220679
-0.08827078 0.19130983 -0.04518781
-0.09497762 0.20546085 -0.05813712
-0.09457359 0.20768760 -0.08558851
-0.07523703 0.19789864 -0.12463748
-0.05888593 0.19796872 -0.14627886
-0.02116030 0.18339817 -0.16768397
-0.01785797 0.18952707 -0.17189893
-0.00583642 0.19006040 -0.17530097
0.01898064 0.19072220 -0.18014939
0.08859739 0.19967949 -0.16619065
0.05700094 0.19952549 -0.17952029
0.10459566 0.20094697 -0.15571114
0.11473236 0.16712477 0.00158675
0.13719014 0.18577848 -0.03571744
0.13550354 0.18227446 -0.09487381
0.13968425 0.18224885 -0.05879817
0.12525081 0.17964338 -0.11793894
0.11918192 0.18839573 -0.13417626
-0.04814613 0.10997191 0.14295968
-0.06866940 0.12668611 0.17171420
0.03154608 0.14609707 0.04157440
0.05518284 0.14802505 0.03794072
0.07876584 0.15093520 0.02864104
0.11133466 0.17379544 0.00762978
-0.07876004 0.17648088 -0.02742897
-0.01831419 0.16523404 0.03531335
-0.04143962 0.17334227 0.02404869
-0.06550149 0.16359075 -0.00713416
-0.07873960 0.16277230 -0.03951574
0.01033899 0.15825804 0.04265198
-0.08666516 0.18319881 -0.06892059
-0.09052765 0.19502065 -0.07478861
-0.08976747 0.19269532 -0.07624583
-0.08852734 0.19345058 -0.08527547
-0.07723162 0.19292596 -0.11742681
-0.05207468 0.18778036 -0.14800965
-0.02456112 0.18259297 -0.16541732
-0.01255968 0.18029812 -0.17019642
0.03918871 0.18315383 -0.17767295
0.09009838 0.19390182 -0.16263646
0.05155815 0.19474686 -0.17892476
0.10541073 0.19211395 -0.15000700
0.10670989 0.19488677 -0.14999006
0.12134738 0.16761787 -0.00964360
0.13351152 0.17701190 -0.03227168
0.13589322 0.17744565 -0.08794525
0.13751034 0.17410986 -0.05940775
0.12642054 0.17827197 -0.11517855
-0.08029531 0.11841185 0.14262156
-0.04723448 0.11912088 0.16515963
0.02499085 0.13950255 0.04120410
0.03558656 0.14154174 0.04129733
0.04858213 0.14399393 0.03926473
0.06989422 0.13055049 0.03210930
0.10190810 0.16104025 0.01308770
-0.08241944 0.16643364 -0.05761549
-0.03629362 0.15761567 0.02342290
-0.05801123 0.15456486 0.00240600
-0.07198795 0.14892176 -0.02260064
-0.07967797 0.14998986 -0.04989882
-0.00226596 0.14877639 0.03793617
-0.08308438 0.16933407 -0.06772435
-0.08536275 0.18655513 -0.08837726
-0.07739200 0.18543299 -0.11224996
-0.05337797 0.18282900 -0.14441751
-0.01936561 0.16685548 -0.16385208
-0.00577902 0.17028766 -0.16951298
0.01698388 0.16519812 -0.17316011
0.07822281 0.17944255 -0.16403655
0.08885803 0.18745432 -0.16091876
0.05858231 0.18534665 -0.17386169
0.09783287 0.18143630 -0.15265038
0.11369798 0.15435399 -0.00099211
0.13348118 0.16467259 -0.04309516
0.13303578 0.16772835 -0.08999106
0.13569349 0.16619125 -0.07638987
0.12022739 0.16988018 -0.12205257
-0.08423130 0.11037213 0.15769659
-0.04941764 0.11985051 0.16771855
0.02548514 0.13180025 0.04085631
0.04254397 0.14108562 0.04074643
0.08283193 0.12915180 0.02456797
0.10617315 0.14677158 0.00607488
-0.08112229 0.15971123 -0.06699784
-0.02366623 0.15575536 0.03042118
-0.05724062 0.14599073 0.00152584
-0.04058018 0.14731934 0.01844400
-0.06761575 0.14934272 -0.01491076
-0.07578295 0.15580376 -0.03230054
-0.07982440 0.15017497 -0.05467787
0.00911471 0.13717550 0.04011751
-0.08052146 0.16748163 -0.08673272
-0.07819041 0.16875273 -0.09655550
-0.06538644 0.17357423 -0.12636536
-0.05717803 0.17874606 -0.13878105
-0.03537457 0.17045175 -0.15556481
0.00193652 0.16933760 -0.17135416
0.02953257 0.16971638 -0.17419619
0.08495990 0.17643401 -0.15931147
0.05085512 0.17236091 -0.17221791
0.10283558 0.17289581 -0.14455385
0.11975153 0.14885651 -0.01297226
0.12851258 0.15293048 -0.03157038
0.12933692 0.16140930 -0.09852863
0.13472074 0.16168277 -0.07265047
0.12411109 0.15755253 -0.11055904
0.11724745 0.15960774 -0.12301123
-0.05672199 -0.03658456 0.13652923
-0.05987391 0.05078680 0.13568504
-0.05501963 0.07572873 0.13746921
-0.05495762 0.05166606 0.13750505
-0.04852212 0.06113787 0.14270684
-0.04903715 0.00814560 0.14219166
-0.04687174 0.07661923 0.14543205
-0.04591095 0.05937924 0.14710575
-0.04548182 -0.01039594 0.14834052
-0.04556098 0.08535127 0.14797082
-0.07553058 0.11204414 0.17154776
0.02916310 0.12281983 0.04093041
0.05111140 0.11986303 0.03823229
0.06906705 0.11346392 0.03322302
0.10015510 0.14335739 0.01168561
-0.07910985 0.15520325 -0.08369151
-0.02576047 0.13953241 0.02726914
-0.04405761 0.14265504 0.01440921
-0.06929600 0.14374546 -0.01906171
-0.07781976 0.14245347 -0.04592522
-0.07880179 0.13737427 -0.06997187
-0.01364926 0.13399033 0.03386669
-0.07328090 0.15544025 -0.10556197
-0.07061687 0.16716289 -0.11436460
-0.04471844 0.16501185 -0.14678029
-0.01936483 0.14919631 -0.16058969
-0.00751864 0.15626491 -0.16630274
0.03794109 0.16076907 -0.17228977
0.09290121 0.16448600 -0.15155934
0.04873824 0.16281243 -0.17051648
0.10696382 0.16761092 -0.13870908
0.09687094 0.17424493 -0.15095785
0.11962084 0.14323364 -0.01389857
0.13057286 0.14590447 -0.04295529
0.12939601 0.14580731 -0.09009937
0.13325292 0.15091010 -0.06374980
0.11970612 0.15270855 -0.11687191
-0.06246639 0.01891467 0.13520784
-0.06290648 0.06816596 0.13520776
-0.06158427 -0.04658596 0.13522694
-0.05932800 -0.02400479 0.13583125
-0.05443028 -0.02959428 0.13780976
-0.05313868 -0.04964645 0.13855609
-0.05092071 -0.02234758 0.14030758
-0.05069069 -0.00074935 0.14053767
-0.04644523 -0.02384527 0.14622402
-0.04717531 0.01219072 0.14494138
-0.04457154 -0.06153729 0.15174937
-0.04434438 0.03027152 0.15505143
-0.04434026 0.07442039 0.15467620
-0.04495525 0.01027101 0.16007994
-0.04483024 0.01918121 0.15961319
-0.06054698 0.11047831 0.17484433
0.03509982 0.11181253 0.04142814
0.00622601 0.12578594 0.03902928
0.06585387 0.12041400 0.03425726
0.07876862 0.11575625 0.02750375
0.10634627 0.13972105 0.00526316
-0.07358127 0.14099034 -0.09835935
-0.02633504 0.13471116 0.02668576
-0.04551324 0.13303077 0.01233873
-0.06457461 0.13061959 -0.01206551
-0.07219753 0.14392036 -0.02468320
-0.07887239 0.13890684 -0.05491741
-0.07392839 0.12835081 -0.09485733
-0.06789305 0.15540817 -0.11498208
-0.06968039 0.16168422 -0.11359617
-0.06789385 0.16106815 -0.11652230
-0.04186834 0.15910839 -0.14814217
-0.03365233 0.14906014 -0.15232253
0.00028900 0.14731470 -0.16713235
0.03671812 0.15674770 -0.17174217
0.08756057 0.16029145 -0.15375362
0.05028734 0.15998915 -0.16965854
0.10343668 0.16121016 -0.14031008
0.11982567 0.12876370 -0.01556212
0.13116004 0.14280902 -0.04589712
0.13079200 0.14318879 -0.08425664
0.13234175 0.14202891 -0.05864157
0.12509594 0.14308389 -0.10531729
-0.06932575 0.04978484 0.13587252
-0.06818009 0.03960993 0.13556878
-0.06432020 -0.00883673 0.13521783
-0.06528325 -0.00058785 0.13522584
-0.04951410 -0.06445674 0.14771624
-0.04434226 0.04805971 0.15690079
-0.04434658 -0.05188582 0.15681727
-0.04565675 0.05878092 0.16270513
-0.04544579 0.04507620 0.16191564
-0.04588421 0.07457856 0.16317778
-0.04891733 0.10172063 0.16799626
0.02930627 0.10773586 0.04190374
0.00277271 0.11406100 0.03865182
0.05096653 0.10276854 0.03984006
0.08020876 0.10401975 0.02801206
0.10182778 0.12463369 0.00926326
-0.07148486 0.13841377 -0.10539006
-0.02184429 0.12705201 0.02899074
-0.04684336 0.12388417 0.01096609
-0.05788301 0.12357373 -0.00028762
-0.07766418 0.12736409 -0.04771088
-0.07888694 0.11699073 -0.07439698
-0.07318232 0.12256764 -0.09857229
-0.06768642 0.14042840 -0.11215003
-0.04814446 0.15296363 -0.14068506
-0.02660338 0.14017565 -0.15553430
-0.01877309 0.13215576 -0.15963660
0.00272488 0.13905089 -0.16721040
0.01620841 0.13507381 -0.16972353
0.07865221 0.15238826 -0.15765523
0.05780141 0.14898756 -0.16609349
0.09625784 0.15396915 -0.14609558
0.12241242 0.12785980 -0.02007545
0.13126757 0.13387194 -0.04785659
0.12923658 0.12943552 -0.08766551
0.13218436 0.13850912 -0.07314138
0.11227813 0.14031600 -0.12727503
-0.07472769 0.07738628 0.13815829
-0.07449429 0.07064449 0.13802518
-0.07655173 0.08468765 0.13921807
-0.08070500 -0.00596816 0.14371419
-0.08039894 0.03129813 0.14318373
-0.08340974 0.04862534 0.14947841
-0.08402835 -0.00252758 0.15178807
-0.08422626 0.06053449 0.15388068
-0.08422665 0.06601801 0.15593878
-0.08303495 0.08629694 0.16223010
-0.08400275 0.07542950 0.15861472
-0.06951223 -0.05789082 0.13595357
-0.07061560 -0.02176864 0.13623746
-0.04733038 -0.06709142 0.14444091
-0.04762862 -0.06517192 0.16094142
-0.04707031 -0.06306328 0.16523089
-0.04804235 0.02420879 0.16691347
-0.04986050 0.04656780 0.16893709
-0.05005600 0.04164222 0.16913254
-0.06536283 0.09163041 0.17509841
-0.06454628 0.05341393 0.17509810
-0.06879600 0.09146379 0.17459275
-0.07024577 0.06254502 0.17420380
-0.07600597 -0.02301986 0.17141597
-0.07920063 0.06352878 0.16843978
-0.07761364 0.10012670 0.17002890
-0.08169451 0.08584349 0.16488290
-0.08209458 0.07248071 0.16419043
0.04060389 0.10174211 0.04272101
0.00755258 0.10166785 0.04138719
0.06581513 0.09835519 0.03648410
0.08748486 0.09398704 0.02539021
0.10502430 0.11297927 0.00681163
-0.06128616 0.12696411 -0.12222596
-0.03183482 0.11820461 0.02368358
-0.05326854 0.12322374 0.00458215
-0.06224986 0.11372808 -0.00696331
-0.07742750 0.11393209 -0.04448290
-0.07896851 0.11519844 -0.06867906
-0.07880209 0.11889255 -0.06309558
-0.07464753 0.11402738 -0.09459705
-0.06987599 0.11463410 -0.10846571
-0.04390299 0.13647694 -0.14288724
-0.02114148 0.12994453 -0.15815417
-0.00018428 0.13653254 -0.16631359
0.04004688 0.14123728 -0.16999994
0.07973189 0.14388694 -0.15584348
0.04752844 0.13861833 -0.16801530
0.10420403 0.13636568 -0.13590818
0.12366313 0.11390712 -0.02097864
0.12631171 0.12125921 -0.02917045
0.13162958 0.12658448 -0.07877167
0.13179350 0.12639001 -0.06986905
0.11348411 0.11575341 -0.12520249
-0.07429958 0.00904705 0.13792664
-0.07629818 0.01267510 0.13907514
-0.07846003 -0.05648576 0.14114136
-0.08008607 0.01545403 0.14275866
-0.08209564 -0.00255491 0.14611869
-0.08292403 0.06458452 0.14766492
-0.08293649 0.05995391 0.14771145
-0.08422640 -0.04661639 0.15465219
-0.08422611 0.07399625 0.15311849
-0.08403150 0.06799214 0.15850733
-0.08409282 0.00622278 0.15827824
-0.07156574 -0.06510278 0.14982680
-0.05668056 -0.06546192 0.16224101
-0.04958267 -0.01778245 0.16865933
-0.05002864 -0.04180640 0.16910518
-0.05445493 0.06527130 0.17250994
-0.05259663 0.02394408 0.17143632
-0.05953422 0.08745926 0.17452917
-0.06655583 -0.05818110 0.17509887
-0.06305296 -0.06090015 0.17509753
-0.06740374 -0.04426984 0.17496627
-0.06937427 -0.05754643 0.17443761
-0.07298449 0.03380894 0.17315951
-0.07251504 -0.00948857 0.17343041
-0.07876881 -0.01467022 0.16887218
-0.07683373 0.03556070 0.17080986
-0.08133826 -0.01697481 0.16549953
-0.08145543 -0.01732598 0.16529671
0.01321207 0.08638487 0.04551191
-0.00962781 0.09618021 0.03755510
0.05245212 0.08875212 0.04191573
0.07051431 0.08511595 0.03752816
0.09284822 0.09927983 0.02136181
-0.05788632 0.11096465 -0.12946828
-0.02076655 0.10096771 0.03202174
-0.04607753 0.10938853 0.01285822
-0.06789095 0.10873824 -0.01588583
-0.07776407 0.10446859 -0.04181091
-0.08075021 0.09926914 -0.07285267
-0.07435029 0.10070914 -0.10162559
-0.06240979 0.10200567 -0.12416206
-0.05403526 0.14087296 -0.13303688
-0.01696636 0.11937659 -0.16092418
0.00274988 0.12637359 -0.16678845
0.03880639 0.11827598 -0.16985260
0.07819350 0.13303566 -0.15616554
0.06323595 0.13881726 -0.16381463
0.09559064 0.13434729 -0.14439347
0.11701252 0.10015265 -0.00625523
0.12889285 0.11166464 -0.03712548
0.12781102 0.11315735 -0.09536817
0.13247317 0.11135145 -0.07467119
0.11518964 0.11534054 -0.12228524
0.09757173 0.11370040 -0.14293646
-0.06164269 -0.06565088 0.16348598
-0.07117601 -0.06582429 0.16257068
-0.05551823 0.04824778 0.17312426
-0.05635603 -0.00957880 0.17360829
-0.05912330 -0.03831859 0.17441925
-0.05857317 -0.04711074 0.17427209
0.03575561 0.08023998 0.04692382
0.01185909 0.08769419 0.04511166
0.06045864 0.07745894 0.04245542
0.07196095 0.07746877 0.03872068
0.10717055 0.09860525 0.00717243
-0.04355078 0.12687651 -0.14278565
-0.03944277 0.11830728 -0.14744079
-0.04640379 0.11049084 -0.14103805
-0.03220279 0.09504098 0.02635044
-0.05774793 0.10913209 0.00123581
-0.06739693 0.09438963 -0.01112080
-0.07856530 0.09549194 -0.04007680
-0.08084078 0.09860804 -0.06526165
-0.07938067 0.10436036 -0.08093821
-0.06415608 0.09414245 -0.12327885
-0.05700266 0.10810147 -0.13090037
-0.03687754 0.11133148 -0.14985130
-0.01184049 0.12478147 -0.16295494
0.01461788 0.11702180 -0.16991134
0.05746834 0.11625462 -0.16541575
0.07175658 0.12125364 -0.15998562
0.04672648 0.12430281 -0.16791816
0.10384341 0.12321527 -0.13605611
0.12208790 0.09951174 -0.01487077
0.12631346 0.11017313 -0.02696968
0.13208581 0.10328873 -0.08382471
0.13302672 0.10701193 -0.07012897
0.11520139 0.09936827 -0.12581406
0.09770492 0.10933403 -0.14328951
0.10051491 0.10313085 -0.14167457
-0.04419398 -0.07377894 0.14950142
0.02752907 0.07703268 0.04767011
-0.01445889 0.08386818 0.03896563
0.00203149 0.08304659 0.04358140
0.04400520 0.07291797 0.04836740
0.07520892 0.06846835 0.04020470
0.09696713 0.08824318 0.02011574
-0.03369679 0.09425260 -0.15433087
-0.02666437 0.08471175 0.03216365
-0.04077622 0.09099279 0.02208825
-0.06794745 0.08950044 -0.00992073
-0.07954904 0.09206221 -0.04128087
-0.08227105 0.09046181 -0.06555332
-0.07502807 0.09112579 -0.10513701
-0.06832322 0.08764171 -0.11900072
-0.04696267 0.08186465 -0.14757987
-0.01547573 0.10913066 -0.16250816
0.00485017 0.10287727 -0.16920893
0.04080575 0.09860396 -0.17186440
0.06055545 0.10797399 -0.16525533
0.08644089 0.11834886 -0.15165683
0.11776982 0.08492368 -0.00174473
0.13267140 0.10881388 -0.04997913
0.12769323 0.09513350 -0.10451017
0.13464446 0.09512584 -0.05952719
0.12216714 0.09562084 -0.11476559
0.11755563 0.09572685 -0.12272690
0.10101502 0.09943824 -0.14188568
0.08784017 0.09497075 -0.15374744
-0.05591461 -0.06993483 0.17314778
0.03026332 0.06353818 0.05208117
-0.00294365 0.07572950 0.04412918
0.05603837 0.06348704 0.04833524
0.09192288 0.06343839 0.03245605
0.08127907 0.06519847 0.03793459
0.10781805 0.08560677 0.01012312
-0.01903600 0.08700320 -0.16467699
-0.04101777 0.07892218 0.02540998
-0.04863315 0.07752899 0.01860027
-0.06898349 0.07840895 -0.00662122
-0.07839532 0.07724314 -0.02382488
-0.08325367 0.08618292 -0.05770271
-0.08166974 0.08896607 -0.08227491
-0.06553982 0.07864258 -0.12795171
-0.05333343 0.08177468 -0.14123954
-0.02871147 0.08243050 -0.16030454
0.00104034 0.09820973 -0.16884642
0.01788630 0.10118375 -0.17151469
0.01501322 0.10382015 -0.17115586
0.05269937 0.10098912 -0.16834546
0.06899069 0.10710068 -0.16272516
0.12915955 0.08497398 -0.02149389
0.13228858 0.08307888 -0.03111261
0.13238899 0.08800017 -0.09286613
0.13575200 0.08980307 -0.06959071
0.11520428 0.08937483 -0.12937663
0.10261280 0.08785558 -0.14331595
0.08611301 0.09052866 -0.15580680
-0.05411669 -0.07507376 0.13438673
0.02289826 0.05640982 0.05486535
0.01414945 0.05335873 0.05617726
0.00211083 0.06232055 0.05002111
0.05777747 0.05887680 0.04963524
0.07849448 0.05462196 0.04427214
0.09950572 0.07601672 0.02170099
0.00227332 0.07982215 -0.17312985
-0.02680834 0.06665247 0.03804758
-0.04964424 0.07039230 0.02083438
-0.06942266 0.07098092 -0.00277071
-0.08537478 0.07424033 -0.04612555
-0.08584316 0.07556604 -0.06646369
-0.08564338 0.07617855 -0.06107256
-0.08130835 0.06944811 -0.10382164
-0.07571548 0.07627832 -0.11158306
-0.05460117 0.07422054 -0.14282661
-0.03154858 0.07475809 -0.16096802
-0.00868882 0.09328164 -0.16699434
0.02631491 0.09068713 -0.17324344
0.05831064 0.08685132 -0.16951587
0.12758385 0.07698232 -0.01506516
0.13530794 0.08535810 -0.04439533
0.13383854 0.07964236 -0.09487330
0.13541074 0.09129089 -0.07497448
0.12726096 0.09010408 -0.10815235
0.11269364 0.08830364 -0.13308746
0.11031821 0.08655316 -0.13603169
0.08533019 0.08071746 -0.15885923
-0.04340747 -0.07884028 0.15584464
0.04073861 0.05161194 0.05693173
0.00973287 0.05100066 0.05694531
0.07373278 0.04561422 0.05126906
0.06765782 0.05645527 0.04806664
0.08316401 0.04553701 0.04609077
0.11295318 0.06983785 0.01111262
0.00376090 0.06877522 -0.17699785
-0.04293784 0.06229065 0.03037757
-0.06486753 0.06562480 0.00781438
-0.08102211 0.06439306 -0.01856201
-0.08444782 0.06108791 -0.02605394
-0.08583179 0.06434341 -0.03532789
-0.09056646 0.06112036 -0.05967633
-0.08691501 0.06488637 -0.08866095
-0.07654685 0.06259836 -0.11908695
-0.05946671 0.06973558 -0.14003505
-0.02604462 0.06297720 -0.16859052
-0.00371886 0.06204772 -0.17726999
0.01700561 0.07949568 -0.17581268
0.04813092 0.08872007 -0.17180056
0.04309412 0.08060945 -0.17507799
0.12497529 0.06319831 -0.00153779
0.13592153 0.07409198 -0.03554920
0.14045460 0.07027847 -0.08106534
0.14230488 0.06597950 -0.04978111
0.12306701 0.06920805 -0.12656161
0.10416632 0.07416546 -0.14661618
0.07441806 0.07316438 -0.16760992
-0.07951331 -0.08309249 0.16367969
-0.05376687 -0.08008088 0.17043712
0.01217746 0.04040229 0.06227137
-0.01613721 0.04701522 0.05178864
0.04631368 0.04311009 0.05995226
0.07839791 0.03908370 0.05281734
0.10281341 0.04940915 0.03236019
0.10017791 0.05987041 0.02863022
0.02578382 0.06336482 -0.18085578
-0.03634124 0.05516061 0.03755330
-0.06273924 0.05989918 0.01272250
-0.07248584 0.05091388 0.00708802
-0.09385708 0.05089038 -0.04433219
-0.09078519 0.06053108 -0.07100081
-0.08847612 0.05764624 -0.09323964
-0.07337046 0.05219463 -0.13316881
-0.07375813 0.05695435 -0.12840153
-0.05644527 0.05977335 -0.14781172
-0.03691471 0.05625141 -0.16540052
0.00492237 0.05882438 -0.18088804
0.03704274 0.07236975 -0.17791104
0.06941795 0.07619565 -0.16916617
0.12478651 0.06066283 0.00047609
0.13893092 0.07602447 -0.04921603
0.13628514 0.06850310 -0.09887303
0.13522443 0.06442993 -0.10797364
0.14243680 0.06558494 -0.07286506
0.13333834 0.06232189 -0.11326647
0.11782079 0.06154496 -0.13879560
0.08525652 0.06768799 -0.16341868
-0.05051810 -0.07869178 0.13268376
0.01134299 0.01530518 0.07588164
0.03160545 0.03418174 0.06564584
0.02915161 0.02660057 0.06975686
0.01372823 0.01900299 0.07387647
-0.00094679 0.02196639 0.06969272
-0.00725042 0.04107588 0.05727425
-0.01393412 0.01510438 0.07006410
0.00209475 0.04033667 0.06019362
0.00257927 0.03791294 0.06168420
-0.01099594 0.02106471 0.06750523
0.05237558 0.02208704 0.07013181
0.04858753 -0.00899747 0.08859867
0.05648006 0.00723384 0.07737133
0.02749575 0.01964566 0.07352835
0.03558990 0.02573419 0.07022737
0.10190287 0.03554125 0.04146855
0.11430935 0.05420532 0.01794661
0.03614750 0.05419980 -0.18453393
-0.04492671 0.05800741 0.03117979
-0.03452322 0.05046975 0.04093472
-0.06402065 0.05714472 0.01311749
-0.08471064 0.05281439 -0.01572773
-0.08830180 0.05203419 -0.02549811
-0.09543813 0.04972378 -0.05471556
-0.09312200 0.04514480 -0.09669042
-0.09128917 0.04942909 -0.09640554
-0.08083002 0.05134227 -0.12098602
-0.07122158 0.04541171 -0.14177697
-0.04003054 0.04662487 -0.16838366
-0.01800974 0.05875145 -0.17477544
0.01913320 0.05266721 -0.18519580
0.01582218 0.04728845 -0.18750983
0.04953077 0.06729906 -0.17750752
0.13546400 0.04624534 -0.00560454
0.14058457 0.05334023 -0.02375932
0.14529527 0.05091846 -0.09139867
0.14691382 0.05403034 -0.06206154
0.12231492 0.05795306 -0.13581343
0.13203100 0.05885599 -0.11820065
0.09934531 0.06021129 -0.15797449
0.08041340 0.05597791 -0.17121226
-0.07612795 -0.08440761 0.13498080
-0.01078359 0.00440016 0.07691861
-0.00787008 0.00971608 0.07471498
0.00653667 0.01452510 0.07587628
-0.01317393 -0.01151699 0.08521424
0.00437372 0.00052339 0.08315748
0.02329059 0.00151649 0.08335990
0.02925986 0.00280869 0.08265970
0.03155299 0.01235645 0.07748207
0.03809899 -0.00804966 0.08854918
0.07986330 -0.01162369 0.08169418
0.08362462 -0.00482945 0.07687195
0.06465169 0.02277857 0.06645469
0.07091821 -0.00967158 0.08299463
0.06277753 0.01133790 0.07338002
0.07757998 0.02114336 0.06390920
0.09175717 -0.00089873 0.07014181
0.08291365 0.00743348 0.07002942
0.08986323 0.00186115 0.06950698
0.08492768 0.00123526 0.07274780
0.11263521 0.04484436 0.02534655
0.06033728 0.04769217 -0.18265151
-0.02735865 0.04364873 0.04864087
-0.06628863 0.04215865 0.02042287
-0.08826978 0.02231804 0.00944586
-0.08958032 0.01442109 0.01574216
-0.09007078 0.01270260 0.01675672
-0.08628194 0.03783969 -0.00394836
-0.08614431 0.03383674 0.00063246
-0.09480380 0.04351650 -0.03494961
-0.09133170 0.04398627 -0.10574698
-0.08035360 0.03244356 -0.14089259
-0.05398376 0.04082026 -0.16247149
-0.02383769 0.04230495 -0.18022924
-0.02793416 0.03315993 -0.18359151
0.00210818 0.00115428 -0.21091226
0.00593276 0.00605398 -0.20918569
-0.00635502 0.01622468 -0.20018396
0.00213644 0.00643227 -0.20795644
0.03131860 0.03897484 -0.19176417
0.07131685 0.04694707 -0.18004122
0.06793711 0.05956471 -0.17532514
0.12834649 0.03994861 0.01327478
0.14864745 0.04582475 -0.04135071
0.14310707 0.04837517 -0.10379713
0.15061041 0.04544175 -0.07845642
0.13630637 0.05448439 -0.11455639
0.13247741 0.05175044 -0.12354356
0.11685710 0.04746271 -0.14822076
0.09857683 0.05051204 -0.16343877
-0.06963058 -0.08547034 0.12758232
-0.00900681 -0.04024055 0.09933238
-0.02273776 -0.02010831 0.08668287
-0.01243874 -0.01773670 0.08838653
-0.01230657 -0.02663902 0.09238817
-0.00431468 -0.04577081 0.10305381
-0.02725933 0.02893466 0.05791235
-0.03303549 0.02963988 0.05413477
-0.04235280 0.03886948 0.04297376
0.01278608 -0.02436529 0.09615346
0.00994167 -0.04355113 0.10440952
0.00861759 -0.04682643 0.10581887
0.02600571 -0.03413255 0.10035795
0.07867754 -0.01438172 0.08343243
0.05255953 -0.02526166 0.09527614
0.07186566 -0.02299511 0.08909427
0.06380556 -0.01424357 0.08735517
0.07534075 -0.01645341 0.08524922
0.10037616 0.00672734 0.06039194
0.10674611 0.00250674 0.05935813
0.10805978 0.01346932 0.05173558
0.11067297 0.00742729 0.05401058
0.12065280 0.03529148 0.02465711
0.06665369 0.03523860 -0.18764132
-0.06178244 0.02670321 0.03678480
-0.06367571 0.01907249 0.04074364
-0.06040322 0.02686286 0.03804197
-0.05893017 0.01869101 0.04578314
-0.04974788 0.03921534 0.03848657
-0.09425217 0.02904604 -0.00821634
-0.09476052 0.02965315 -0.00975557
-0.09332549 0.03950561 -0.02102290
-0.10536188 0.03045445 -0.05816334
-0.09794884 0.03375830 -0.10248100
-0.09983305 0.03824127 -0.08606052
-0.09415746 0.03464043 -0.11460474
-0.06619952 0.03407765 -0.15542969
-0.04761753 0.04084287 -0.16741800
-0.00688170 0.00676589 -0.20535370
-0.01446583 0.03024626 -0.19013892
0.02791018 0.02619260 -0.19869600
0.03646440 0.01698954 -0.20368639
0.03903759 0.01812531 -0.20307043
0.05713865 0.01930255 -0.19913924
0.05539380 0.02479528 -0.19652281
0.13851405 0.03332156 0.00285612
0.15040116 0.04236140 -0.04098442
0.15053511 0.04298058 -0.08592618
0.15082370 0.04496066 -0.05985776
0.12932679 0.04248591 -0.13754693
0.12911891 0.04111309 -0.13939648
0.10818437 0.03201188 -0.16836196
0.10862959 0.01046372 -0.18200455
0.10751526 0.02474996 -0.17370144
0.09029962 0.04414112 -0.17150025
0.09345397 0.04022587 -0.17213045
-0.08025597 -0.09175956 0.15444810
-0.06603138 -0.09784895 0.16471529
-0.00881513 -0.05069886 0.10404312
-0.02314515 -0.04554242 0.09790500
-0.02374675 -0.02856281 0.09017911
-0.01358057 -0.04205758 0.09891604
-0.02510538 -0.02949059 0.09022829
0.04156123 -0.05505117 0.10935959
0.04435103 -0.02333475 0.09571269
0.03504818 -0.04569629 0.10533407
0.04476052 -0.02936744 0.09830847
0.04402599 -0.03926079 0.10256538
0.08001302 -0.04853899 0.09829265
0.07290543 -0.04093335 0.09680738
0.07658627 -0.03775077 0.09440368
0.07421255 -0.04416967 0.09789927
0.09184105 -0.02748935 0.08490688
0.10076056 -0.01654212 0.07431878
0.09575691 -0.04822736 0.09295200
0.10959407 -0.01504295 0.06847531
0.09554536 -0.04452506 0.09123433
0.11472526 0.01432210 0.04666477
0.11334773 0.01982463 0.04382230
0.11591459 0.02417327 0.03792113
0.06901105 0.01762452 -0.19689890
0.07810883 0.02176721 -0.19213459
0.06081814 0.02337922 -0.19586379
0.07016994 0.02808873 -0.19071317
-0.07459288 0.01481048 0.03309333
-0.04523768 -0.00945510 0.07157071
-0.05312149 0.02226268 0.04715562
-0.04924585 -0.01258043 0.07121301
-0.05537498 0.00301594 0.05790669
-0.05353325 -0.00108943 0.06154115
-0.10436940 -0.01267820 0.01951864
-0.10342088 0.00359716 0.00350632
-0.10247213 0.00518136 0.00343148
-0.10205710 0.01013036 -0.00121819
-0.07803018 -0.00861414 0.04762202
-0.07490630 -0.00993673 0.05176063
-0.08846047 -0.00635600 0.03545870
-0.08251854 0.00002874 0.03650427
-0.10700499 0.01660766 -0.02409654
-0.10426870 0.02784193 -0.03742927
-0.11273628 0.01146700 -0.03471799
-0.11970838 0.00337582 -0.04378717
-0.11213886 0.01795718 -0.05823856
-0.11083741 0.02035687 -0.06085823
-0.10792731 0.02572252 -0.06836678
-0.12241037 -0.00098680 -0.08227074
-0.09890171 0.04236458 -0.06891098
-0.10195575 0.02365406 -0.10869761
-0.10913154 0.01598647 -0.09798749
-0.10804547 0.01123148 -0.11199932
-0.11126506 0.00946341 -0.10369134
-0.09514276 0.02271269 -0.12583281
-0.09222916 0.01925598 -0.13462715
-0.09705154 0.00316252 -0.14372783
-0.06515687 0.00823705 -0.17628901
-0.06009638 0.02704458 -0.16692517
-0.06563834 0.00451076 -0.17866527
-0.07095695 -0.00053166 -0.17721488
-0.03899875 0.01370969 -0.18938353
-0.03961541 0.01587115 -0.18767418
-0.03071345 0.02330578 -0.18815760
-0.03086206 0.03033003 -0.18367358
-0.02340222 -0.01131985 -0.21108147
-0.01982917 -0.00944237 -0.21098466
0.00170428 -0.01047857 -0.21733533
-0.01134989 -0.00802177 -0.21245876
0.02404410 0.01967907 -0.20222848
0.01714887 0.03228429 -0.19539303
0.00901396 0.01919494 -0.20249296
0.01080430 -0.00102877 -0.21346073
0.01381886 -0.01147590 -0.21912619
0.02448636 -0.00748319 -0.21695951
0.05268522 0.01001794 -0.20554561
0.05353009 -0.00244572 -0.21231657
0.08255559 -0.01256799 -0.21022023
0.07200262 -0.00655942 -0.20967521
0.14084038 0.01903323 0.01432136
0.13912680 0.02220200 0.01385263
0.15045845 -0.00532900 0.02408360
0.14318617 0.02475710 0.00405227
0.15185087 0.03569545 -0.03242907
0.14978480 0.03631340 -0.10270264
0.15779303 0.03211289 -0.08129545
0.15868509 0.03046766 -0.07722748
0.13956541 0.03491346 -0.12802412
0.14045171 0.02742597 -0.13461155
0.14060922 0.02659620 -0.13523886
0.12923649 0.02830139 -0.15015027
0.12516878 0.01708029 -0.16282493
0.12128408 0.02786291 -0.15844035
0.12244606 0.01883914 -0.16419924
0.11473251 0.03579155 -0.15891282
0.08784168 -0.00157357 -0.20154762
0.08194671 0.01667327 -0.19352537
0.10349814 0.00603125 -0.18774380
0.08511355 -0.00227950 -0.20356517
0.09498010 -0.00371923 -0.19876888
0.09747761 -0.00272124 -0.19670162
-0.07406154 -0.09149552 0.12880074
-0.04989498 -0.03832900 0.08372377
-0.05016415 -0.03718308 0.08299887
-0.05107968 -0.01377093 0.07083584
-0.04147410 -0.02719227 0.08305281
0.00150238 -0.08607100 0.11961150
-0.00265954 -0.07597153 0.11507780
-0.01121497 -0.07279772 0.11171053
-0.00677187 -0.07034403 0.11207095
-0.00141093 -0.06849240 0.11288115
0.01197021 -0.06437673 0.11275961
0.01708460 -0.06562996 0.11316952
0.00365707 -0.09973923 0.12431952
0.01132710 -0.06352357 0.11248068
0.00532187 -0.08705778 0.12017393
0.06135933 -0.06789575 0.11090238
0.05336363 -0.09043350 0.12067200
0.07218107 -0.06453170 0.10686571
0.05626181 -0.06313083 0.11065470
0.06082257 -0.07493436 0.11342850
0.11907288 -0.02289529 0.06690605
0.10379612 -0.05275103 0.09055915
0.11206072 -0.03483328 0.07688557
0.12332953 -0.02151929 0.06376503
0.11573567 -0.05257409 0.08357853
0.13989850 -0.00095649 0.03321185
0.13212414 -0.00138092 0.04131088
0.12726927 -0.00686662 0.05037193
0.13451655 0.00894784 0.03099814
-0.11382224 -0.00220404 -0.01012096
-0.11922105 -0.01325201 -0.00712073
-0.11867787 -0.00459712 -0.02323043
-0.12213523 -0.01005160 -0.02470517
-0.10974488 -0.02490224 0.02086205
-0.11537457 -0.02750498 0.01334897
-0.11416839 -0.01921458 0.00830276
-0.10934798 -0.03779790 0.03264950
-0.10916315 -0.02333002 0.02051662
-0.08076244 -0.02562257 0.05598025
-0.08511324 -0.04152232 0.06130638
-0.08420330 -0.04875616 0.06661929
-0.09193235 -0.02875275 0.04671437
-0.12151518 0.00066838 -0.05776473
-0.11326944 0.01587275 -0.05702973
-0.12104754 0.00152924 -0.06403798
-0.12844952 -0.01211783 -0.05815417
-0.10970643 0.02185471 -0.08355019
-0.11658161 0.00523124 -0.09272002
-0.11782897 -0.00358832 -0.10654080
-0.12009318 0.00080176 -0.08889651
-0.12004681 -0.00372439 -0.09855072
-0.11377931 -0.01018283 -0.12923362
-0.09704869 0.01943413 -0.12608750
-0.11240122 -0.01166995 -0.13323260
-0.10070187 -0.00577628 -0.14710021
-0.07801783 0.02521928 -0.15040785
-0.09326947 -0.01247093 -0.16406038
-0.07797148 0.00070946 -0.16924945
-0.08675204 -0.00673745 -0.16618044
-0.08233119 0.01445004 -0.15435329
-0.04692969 0.00036255 -0.19316315
-0.05764477 -0.00987643 -0.19338995
-0.04133591 -0.00535745 -0.19997354
-0.04024660 -0.00862369 -0.20264753
0.04788869 -0.03088971 -0.22767844
0.01079996 -0.01528354 -0.22096707
0.04434172 -0.03492279 -0.22941445
0.04167899 -0.03097832 -0.22771733
0.07248660 -0.01429112 -0.21376894
0.08548485 -0.03281433 -0.21853742
0.07384910 -0.02617615 -0.21869861
0.05739095 -0.02239317 -0.22142428
0.08419850 -0.03976797 -0.22198007
0.16110221 -0.00251720 0.00260443
0.16508522 -0.00707402 0.00064903
0.15741300 0.00347088 0.00249910
0.15419741 -0.00787507 0.02037026
0.15324721 0.02462585 -0.01445069
0.16817917 -0.00136851 -0.01570906
0.15508588 0.02655522 -0.02535157
0.15592481 0.02994037 -0.03557204
0.15893164 0.01827334 -0.10636885
0.16959168 0.00914448 -0.08570550
0.16406653 0.01834819 -0.08704175
0.14759394 0.03041254 -0.11899905
0.14744915 0.02403596 -0.12616705
0.15962102 0.02873860 -0.04817303
0.17553501 -0.00060886 -0.05183888
0.16867474 0.01204241 -0.05056850
0.12550986 -0.00764124 -0.18144562
0.13237254 -0.00508842 -0.17262422
0.14025986 -0.00144999 -0.16194538
0.14714455 -0.00800676 -0.16008904
0.12993506 -0.00711440 -0.17661588
0.09767159 -0.04669356 -0.21980534
0.09943147 -0.02748687 -0.20924490
0.09715309 -0.03922471 -0.21639338
0.08957528 -0.02210507 -0.21226249
-0.04014884 -0.08627488 0.13062481
-0.05626872 -0.10024026 0.16299096
-0.07697430 -0.05581424 0.07677570
-0.06511992 -0.05701187 0.08421643
-0.06047635 -0.03229731 0.07461562
-0.06917338 -0.02361385 0.06527795
-0.04221407 -0.08506035 0.10755238
-0.03933247 -0.07219910 0.10397172
-0.02392833 -0.10154789 0.11803369
-0.03813585 -0.08781152 0.10957659
-0.04054995 -0.08671876 0.10855971
-0.03125552 -0.08158538 0.10931337
0.04463119 -0.08926191 0.12089768
0.02879655 -0.07889318 0.11750588
0.04042672 -0.09332932 0.12222716
0.04028457 -0.09472977 0.12268505
0.05080818 -0.09825143 0.12383756
0.08911401 -0.07488958 0.10583666
0.06489920 -0.09649823 0.11963537
0.08551152 -0.07655788 0.10736613
0.09674620 -0.10299815 0.11330571
0.08809929 -0.09224529 0.11198236
0.12057055 -0.06086506 0.08462001
0.12031674 -0.06764632 0.08732639
0.10156492 -0.09842281 0.10976964
0.10239091 -0.07458532 0.10029438
0.10654732 -0.06648199 0.09483596
0.13939580 -0.01707127 0.04547150
0.13243032 -0.04855515 0.07159372
0.13687174 -0.04276684 0.06363067
0.12678957 -0.02953599 0.06566102
-0.13837812 -0.03654894 -0.03987908
-0.13511458 -0.02977068 -0.03896787
-0.13014742 -0.02912475 -0.02150117
-0.13705511 -0.03351838 -0.03997977
-0.14139517 -0.04270518 -0.04090445
-0.12910456 -0.05628552 0.01434013
-0.12519400 -0.03155268 -0.00017589
-0.11803550 -0.05029698 0.02835829
-0.11806316 -0.05203072 0.02980275
-0.12278376 -0.04872974 0.01878466
-0.10114931 -0.03546812 0.04158213
-0.09852317 -0.02621692 0.03857867
-0.10378129 -0.04539468 0.04499077
-0.10582315 -0.04062589 0.04004615
-0.13493406 -0.04985234 -0.12381353
-0.13103273 -0.03516748 -0.11395978
-0.12855093 -0.02935715 -0.11356141
-0.12903361 -0.01391559 -0.08609237
-0.13159924 -0.03728220 -0.11536127
-0.10389591 -0.02170118 -0.15695297
-0.10518112 -0.02949652 -0.16143561
-0.10865123 -0.03997108 -0.16444039
-0.11147165 -0.03568304 -0.15586651
-0.07738795 -0.02848910 -0.18981470
-0.09323569 -0.01474237 -0.16560423
-0.07760092 -0.03807365 -0.19543359
-0.08868078 -0.02417235 -0.17589646
-0.03708712 -0.01397828 -0.20773370
-0.04259482 -0.04378319 -0.21936601
-0.04952221 -0.04035839 -0.21366568
-0.03858885 -0.03331369 -0.21647548
-0.04807097 -0.04045956 -0.21455359
0.04345298 -0.05516858 -0.23812689
0.01216282 -0.05111698 -0.23638559
0.04670462 -0.05654982 -0.23872099
0.01086383 -0.03102282 -0.22773953
0.01530147 -0.03853638 -0.23097219
0.06318904 -0.03152555 -0.22393890
0.05268977 -0.04897633 -0.23452787
0.07576017 -0.05201555 -0.22969826
0.05411048 -0.03995166 -0.23012633
0.16645929 0.01412589 -0.04175002
0.17055825 -0.00106011 -0.02523268
0.17166110 0.00067569 -0.03298423
0.16408773 0.01419342 -0.03304199
0.16656653 0.01393339 -0.04174696
0.16695207 0.00294153 -0.10855916
0.16729071 -0.00414622 -0.12214749
0.16956458 0.00368377 -0.09725219
0.17735883 -0.00745253 -0.09149498
0.17750433 -0.00423582 -0.07288711
0.16880430 0.01180757 -0.07667989
0.17548510 -0.00051575 -0.05820360
0.16315703 0.02222162 -0.07978758
0.15890104 -0.00151809 -0.13404819
0.15402339 0.01795094 -0.12137910
0.16794286 -0.01068024 -0.12832135
0.16579796 -0.00966429 -0.13093552
0.16662865 -0.01214073 -0.13218273
0.13862723 -0.02266185 -0.17836175
0.13328884 -0.04228310 -0.19564271
0.13199145 -0.04353322 -0.19770110
0.13169658 -0.01895473 -0.18303686
0.12638018 -0.04568343 -0.20272530
0.09975057 -0.05646209 -0.22345905
0.12195752 -0.04905658 -0.20695544
0.10562142 -0.04177138 -0.21276849
0.12409468 -0.04591387 -0.20415958
-0.05803975 -0.08371228 0.11956357
-0.07121783 -0.06300507 0.08313093
-0.04468294 -0.08257122 0.10584052
-0.04634864 -0.07097245 0.10049992
-0.05866803 -0.08391325 0.09827120
-0.05514228 -0.08946371 0.10240259
-0.00233186 -0.10919016 0.12601045
-0.02751143 -0.10680947 0.11869604
-0.00303282 -0.11233511 0.12656996
-0.00214561 -0.14672109 0.13497941
-0.02370172 -0.12847738 0.12486639
-0.03258471 -0.10613069 0.11717499
0.03310219 -0.12138995 0.12982812
0.00947447 -0.13447755 0.13283001
0.03216938 -0.12153220 0.12986068
0.00328350 -0.12991140 0.13178124
0.02466847 -0.10657549 0.12642663
0.07998769 -0.10672083 0.11890480
0.06630790 -0.12508059 0.12693097
0.06412828 -0.12904820 0.12845745
0.05417878 -0.14260487 0.13434331
0.06864049 -0.11607297 0.12416600
0.11629375 -0.09650769 0.10054415
0.13142040 -0.09871352 0.09264489
0.11848840 -0.09769869 0.09972689
0.14158025 -0.09523762 0.08546780
0.13554793 -0.08880615 0.08652200
0.13982966 -0.05212180 0.06636586
0.14888681 -0.04725882 0.05435161
0.15097635 -0.02992664 0.04171530
0.15408703 -0.04092185 0.04529639
0.15219084 -0.05727592 0.05714419
-0.13441484 -0.05259675 0.00161324
-0.13514691 -0.05178217 -0.00247568
-0.13308864 -0.03546591 -0.02193580
-0.13324144 -0.03912156 -0.01642433
-0.13695407 -0.05042876 -0.01147564
-0.13591630 -0.02916565 -0.05044162
-0.13875965 -0.03577471 -0.05670790
-0.14250958 -0.04448821 -0.04626492
-0.14480786 -0.04982981 -0.04802932
-0.13018446 -0.01584362 -0.04459190
-0.13391649 -0.06299775 0.01084502
-0.12796276 -0.08496571 0.03552322
-0.12978128 -0.06000160 0.01604844
-0.12216210 -0.07411938 0.03847790
-0.12422738 -0.09910912 0.05124222
-0.09176153 -0.09504137 0.08187999
-0.09364846 -0.06373064 0.06551508
-0.08939599 -0.08374018 0.07902064
-0.09194645 -0.09910609 0.08357448
-0.10744883 -0.06593871 0.05273230
-0.13911405 -0.05015474 -0.10872080
-0.13786615 -0.04421529 -0.10350387
-0.13767819 -0.05007702 -0.11394873
-0.13497203 -0.04503862 -0.11567026
-0.12113720 -0.03382033 -0.13752617
-0.12420346 -0.04341573 -0.14047340
-0.12472240 -0.05468401 -0.14927136
-0.13266891 -0.05169453 -0.13293791
-0.12265938 -0.05197038 -0.15050875
-0.10732084 -0.04655179 -0.17087849
-0.10683967 -0.05308315 -0.17533398
-0.08991140 -0.03547841 -0.18154532
-0.10777320 -0.04981118 -0.17240963
-0.08551964 -0.05023608 -0.19491628
-0.07582180 -0.04351032 -0.20004830
-0.06931266 -0.03456346 -0.19936106
-0.06010096 -0.04564272 -0.21018404
-0.07350965 -0.03431153 -0.19681280
-0.06752488 -0.04654378 -0.20634561
-0.03124252 -0.02823764 -0.21674550
-0.02651446 -0.03268274 -0.21999215
-0.03453343 -0.03409155 -0.21847244
-0.03786648 -0.05532108 -0.22703871
-0.03387510 -0.04294521 -0.22259349
0.03132940 -0.07160350 -0.24384094
0.04973013 -0.08357553 -0.24775350
0.02872198 -0.07730457 -0.24570484
0.04644899 -0.06192694 -0.24067661
0.03160203 -0.06141720 -0.24051094
-0.01519731 -0.01785555 -0.21641817
-0.00778042 -0.04056679 -0.22852210
0.00056361 -0.01627493 -0.21993651
0.00199714 -0.03002187 -0.22644424
0.08632989 -0.06675878 -0.23254552
0.09400488 -0.08452820 -0.23650259
0.09857801 -0.10266802 -0.24141644
0.08096831 -0.08510323 -0.24019146
0.07786857 -0.06571623 -0.23446058
0.18595720 -0.04343892 -0.00695946
0.18179785 -0.02179724 -0.02741577
0.18130197 -0.03122393 -0.00989452
0.18079162 -0.02362875 -0.02061631
0.17563562 -0.01364135 -0.11073899
0.19828313 -0.05193085 -0.08986906
0.18403195 -0.02316063 -0.09522641
0.18872109 -0.03332682 -0.09462720
0.17991400 -0.02083769 -0.10673490
0.18641647 -0.02259418 -0.06518454
0.18612959 -0.02193295 -0.04625268
0.18929467 -0.02928807 -0.04411444
0.19825893 -0.05011768 -0.04461206
0.16568202 -0.03165912 -0.15087865
0.15883439 -0.03075887 -0.16196809
0.16438799 -0.02960491 -0.15135254
0.16861709 -0.03770281 -0.15099551
0.13774471 -0.05439563 -0.19855813
0.14793586 -0.02776129 -0.17215551
0.14621451 -0.03596260 -0.17886839
0.15666142 -0.05325506 -0.17894266
0.15367187 -0.03250820 -0.16930694
0.11334104 -0.07665774 -0.22347426
0.09681259 -0.07361142 -0.23186867
0.10405615 -0.08149604 -0.23066238
0.11237175 -0.06597650 -0.22000167
0.12312723 -0.07343808 -0.21660771
-0.03758566 -0.08985242 0.13383490
-0.06421884 -0.10641841 0.11912584
-0.05376628 -0.10307500 0.15988635
-0.06589379 -0.08817381 0.09570691
-0.07972583 -0.09009472 0.08844438
-0.06354254 -0.10501347 0.10342182
-0.07284612 -0.07815857 0.08791126
-0.07063015 -0.09216403 0.09447811
-0.01526337 -0.14910779 0.13203076
-0.03438054 -0.12882043 0.12208577
-0.01857859 -0.13841849 0.12860195
-0.04490760 -0.12552611 0.11848142
-0.03956922 -0.14435088 0.12438583
0.04157896 -0.12901542 0.13157872
0.01835121 -0.14265314 0.13470730
0.01732937 -0.14598646 0.13547225
0.02788275 -0.14349494 0.13490103
0.05130798 -0.13542974 0.13305137
0.02074429 -0.13927825 0.13393289
0.09164331 -0.14499959 0.12487729
0.08449098 -0.13905002 0.12537966
0.10022184 -0.15050281 0.12388686
0.07711640 -0.13403193 0.12616285
0.08523425 -0.13453303 0.12410745
0.08631078 -0.13895844 0.12487045
0.11711336 -0.11091531 0.10487153
0.10898280 -0.12199723 0.11250133
0.10789023 -0.14097748 0.11816120
0.10941279 -0.13954424 0.11690252
0.13267734 -0.11188246 0.09614334
0.14684957 -0.07917835 0.07278423
0.14427946 -0.09098562 0.08081276
0.14055895 -0.08420620 0.08139791
0.15000164 -0.08276498 0.07129119
0.15345669 -0.06912358 0.06152993
0.16741277 -0.01361895 0.00363986
0.17053200 -0.01966688 0.00344331
0.16656736 -0.01808164 0.00894404
0.16709424 -0.02298524 0.01225147
-0.15067577 -0.06976059 -0.03506960
-0.15242457 -0.07658641 -0.03297324
-0.15624952 -0.08710109 -0.03396749
-0.14628880 -0.07315660 -0.01439599
-0.14775785 -0.06618762 -0.02868923
-0.13807707 -0.03419365 -0.07880544
-0.13488821 -0.02678230 -0.07456888
-0.13262817 -0.02152929 -0.07038226
-0.12976952 -0.01488955 -0.08131990
-0.15932055 -0.09150048 -0.08252135
-0.15079485 -0.06541738 -0.06582417
-0.16115669 -0.09711701 -0.08184481
-0.15060498 -0.06483420 -0.05388470
-0.16048525 -0.09506360 -0.08431991
-0.12913306 -0.10504363 0.04662510
-0.13897625 -0.06713728 0.00478699
-0.13555115 -0.06756119 0.01099755
-0.14011532 -0.08796111 0.01643022
-0.13905476 -0.09214029 0.02100017
-0.11168051 -0.08769117 0.05855884
-0.11248652 -0.06412957 0.04685704
-0.09599480 -0.10022070 0.08004084
-0.11170135 -0.07023982 0.05046790
-0.10836499 -0.08086072 0.05871620
-0.12064402 -0.08574030 0.04869191
-0.15028598 -0.09779738 -0.13051963
-0.14340307 -0.07628551 -0.12903479
-0.14403516 -0.06021648 -0.10638493
-0.14770009 -0.07462044 -0.11090022
-0.14340838 -0.06277942 -0.11195984
-0.12819039 -0.09082082 -0.16767093
-0.12532820 -0.08093811 -0.16616679
-0.12853134 -0.07171412 -0.15458995
-0.13296024 -0.06785185 -0.14439559
-0.11056275 -0.06374121 -0.17732590
-0.09441527 -0.08524231 -0.20341040
-0.09904793 -0.06942439 -0.19146549
-0.08885216 -0.06888013 -0.20140713
-0.09102106 -0.08116564 -0.20491894
-0.05559185 -0.06326905 -0.22097115
-0.05618626 -0.07526567 -0.22515623
-0.04490955 -0.07255138 -0.23064219
-0.05495003 -0.06395277 -0.22159978
-0.05073736 -0.07956203 -0.22992381
0.00143871 -0.06282036 -0.24043898
-0.02375393 -0.06559160 -0.23463054
-0.01051530 -0.09050866 -0.24660904
-0.00190083 -0.06794197 -0.24127811
-0.00969014 -0.07832563 -0.24270660
0.01519902 -0.07457388 -0.24481320
0.01756905 -0.09097290 -0.25017453
0.01904919 -0.07461841 -0.24482738
0.03586898 -0.10086421 -0.25340661
0.01057274 -0.07963326 -0.24646780
0.07883213 -0.10428726 -0.24725689
0.07645761 -0.09655896 -0.24527767
0.05337290 -0.07015214 -0.24252757
0.08634041 -0.10041465 -0.24393379
0.06882849 -0.07733209 -0.24081512
0.19937671 -0.05717848 -0.03418774
0.19492613 -0.04710727 -0.03432447
0.19371674 -0.05597308 -0.01507487
0.20058473 -0.05665895 -0.03955831
0.19274042 -0.03803209 -0.04125540
0.16965084 -0.03338954 0.01677794
0.17335735 -0.05490161 0.02887074
0.16933197 -0.04969872 0.03136448
0.17659287 -0.04724167 0.01667616
0.17873124 -0.03874533 0.00566182
0.18611698 -0.04177764 -0.11840596
0.18378524 -0.03507399 -0.11595993
0.19192683 -0.05020171 -0.11072652
0.17894280 -0.02439643 -0.11627772
0.19208520 -0.04924849 -0.10854923
0.19607322 -0.04503501 -0.06561801
0.20077292 -0.05595950 -0.04439649
0.19901027 -0.05185973 -0.07697963
0.19938522 -0.05273159 -0.07227775
0.19339874 -0.03881756 -0.08354201
0.17837159 -0.03594299 -0.13258365
0.18081502 -0.05815849 -0.14747451
0.17579808 -0.04627325 -0.14593391
0.17686674 -0.05034552 -0.14758823
0.17068891 -0.05653515 -0.16361759
0.15367929 -0.06211162 -0.18678191
0.14568096 -0.09636728 -0.21062068
0.14345463 -0.06774640 -0.19961439
0.15860105 -0.06893451 -0.18501359
0.14508566 -0.09061225 -0.20855523
0.12468453 -0.10494700 -0.22760291
0.11866117 -0.09289658 -0.22653228
0.11102776 -0.09112948 -0.23027332
0.12911713 -0.09738247 -0.22218760
0.12669547 -0.08262745 -0.21801609
-0.03950803 -0.09045460 0.12689044
-0.04461178 -0.09690200 0.12577334
-0.06144319 -0.10334694 0.11980023
-0.05745633 -0.10929096 0.15508711
-0.05053143 -0.12754736 0.11693399
-0.06412889 -0.11431492 0.10557430
-0.07665260 -0.11074117 0.09739486
-0.07198240 -0.10755284 0.09924668
-0.05604891 -0.12496055 0.11306209
-0.01199346 -0.16664899 0.13577841
-0.03538246 -0.15355600 0.12766371
-0.00341613 -0.15653059 0.13665074
-0.03903007 -0.15596991 0.12702641
-0.00653130 -0.16418541 0.13689505
-0.01165921 -0.18457460 0.13839528
0.03584316 -0.15663294 0.13759881
0.01537613 -0.16198793 0.13832685
0.01250890 -0.18908794 0.14201695
0.01869546 -0.18222667 0.14108299
