# .PCD v0.7 - Point Cloud Data file format
VERSION 0.7
FIELDS x y z
SIZE 4 4 4
TYPE F F F
COUNT 1 1 1
WIDTH 1404
HEIGHT 1
VIEWPOINT 0 1 0 0 0 0 0
POINTS 1404
DATA ascii
0.07150057 0.01992000 0.19125733
-0.04375928 -0.02114892 0.2247058
-0.12028971 0.00985472 0.11622094
0.09051245 0.06119600 0.15110899
0.09016841 0.01420567 -0.27150291
0.03709313 -0.01678608 0.2867786
0.13369182 -0.00625232 0.21926969
-0.02351571 0.00923300 0.41944617
-0.07820297 -0.06140516 -0.14504531
-0.08094474 -0.06908597 -0.04121975
0.08303198 -0.07186288 -0.34407282
-0.02005742 0.04991440 0.32387181
0.02098765 0.05791400 0.19620254
-0.06359494 0.04124900 0.29603111
0.02328931 -0.04673250 0.37856701
-0.00140086 -0.00836600 0.26999675
0.00788447 0.09588177 -0.20902011
0.04937043 0.03658400 0.20002191
0.13384078 0.00923300 0.09153757
-0.06062395 0.06119600 0.0653925
-0.00526149 0.06119600 -0.20757371
-0.10779187 0.01992000 0.17707458
-0.04259978 -0.02041540 -0.14818882
-0.0798387 0.06448431 -0.22584651
-0.01820886 0.06119600 -0.02864342
-0.1149262 0.01403700 -0.19851723
0.11527982 -0.05480002 -0.07668937
-0.11271948 0.01322607 -0.21913033
-0.05004316 0.05791400 0.25002876
0.09447255 0.06119600 0.09745121
0.06509887 0.01819060 0.33156282
-0.04389894 0.06119600 0.02387149
0.10752212 0.04339178 0.07847365
0.01664856 0.03059700 0.16520379
0.08522154 -0.08151714 0.10330147
0.02092121 0.03059700 0.16458207
-0.05059949 0.04723700 0.18750023
0.04267929 0.04723700 0.16104576
0.10604818 0.00710500 -0.35202645
0.04379024 0.04723700 0.26853401
0.06061772 -0.03359994 -0.11664012
-0.12451706 0.01274811 -0.0567474
0.04076246 -0.01853317 -0.18198595
-0.0442467 0.06119600 0.01051536
-0.06662948 0.06119600 -0.24157042
-0.09041481 -0.09302500 0.02491496
0.1130948 0.00335851 -0.24835863
-0.12590596 0.00923300 0.17607456
0.110572 0.00474220 -0.28557713
-0.00609502 -0.00847687 -0.29118067
-0.05063694 0.05192600 0.17749332
0.11640301 -0.01376827 -0.16206994
0.0428462 -0.01985137 0.02524435
-0.07859123 0.04124900 0.17198776
0.10665584 -0.09084318 -0.10410554
-0.09740166 0.04723700 0.18727699
0.10743734 -0.09302500 0.07812569
-0.06308851 -0.03228325 0.35466511
0.04558419 0.00923300 0.42727577
-0.05026538 -0.02549383 0.34420873
0.05303116 0.04116213 -0.29461213
0.11161565 0.00935527 0.25269763
-0.00106568 0.06119600 0.21748791
0.08459937 -0.07840222 -0.13593231
0.06520565 0.06666646 -0.19471692
0.03371919 0.04199004 -0.30561554
-0.0570557 0.02006850 0.14898901
-0.10328773 -0.08985247 0.16218907
0.08542816 0.05461145 -0.21157037
-0.11801763 -0.07620121 0.02542719
0.02021678 0.05791400 0.24524366
-0.10845069 -0.09302500 0.12441437
-0.05031746 0.06544351 -0.2785309
0.0995693 -0.06512830 -0.26208669
0.12771285 0.00923300 0.15558746
0.10696858 0.03059700 0.19419802
-0.11894393 0.00923300 -0.07162207
0.02997587 -0.01357037 0.31650045
-0.0374736 -0.01747215 0.08536493
0.05961758 -0.01439061 0.39234381
0.11206103 -0.04237127 -0.15027696
0.07276891 0.05791400 0.22844058
-0.06457693 0.00923300 0.35506038
-0.04842475 0.01310335 -0.36026687
-0.07125043 -0.08824093 -0.30717332
0.05402965 -0.02771640 -0.01006452
0.12132655 0.00263062 -0.13618709
0.10689881 -0.01769323 0.29563754
-0.12301306 -0.01569355 -0.05570854
-0.0460149 0.02590800 0.1827031
-0.0113677 0.01992000 0.23986131
0.04414674 -0.02067412 0.23576396
0.13027077 -0.04033073 0.13202662
0.01178861 0.05192600 0.22939685
0.03390797 -0.01534697 0.0576325
-0.06323823 -0.03778671 -0.12970392
-0.00201894 0.01992000 0.33053249
-0.1320469 0.00249286 0.24664608
-0.08074753 0.04723700 0.21208619
0.08642805 -0.09135064 -0.04494219
0.06487325 0.06119600 0.03840688
0.05987778 0.04124900 0.27127547
0.07198133 -0.04786791 0.03703156
-0.06196432 -0.03636766 -0.01486043
-0.0204535 -0.01104521 0.17274684
0.07878549 0.04124900 0.26392908
-0.03317274 0.06119600 0.17091365
-0.08484702 0.04254712 -0.24277737
-0.09545565 -0.01238149 0.33031076
0.0926193 0.03059700 0.17264029
0.03749179 0.01992000 0.22009779
-0.12399935 -0.05240537 0.04739146
-0.04383762 0.06119600 0.25955188
0.09303826 0.02218016 -0.21035103
0.04892671 0.06492530 -0.28259334
-0.00272569 0.00923300 0.44877932
0.06986496 0.06119600 0.23008501
-0.11925164 -0.05434494 -0.01152872
0.01877768 0.06119600 -0.17131321
0.11999112 0.00430137 0.30084669
-0.02603928 -0.01267302 0.19182249
-0.06705618 0.03658400 0.23128726
0.10519479 0.03641402 0.03336248
-0.00322928 0.06119600 0.10146033
0.0994001 -0.04474635 -0.31424752
-0.02633532 0.06119600 0.06290392
0.02485967 0.06774900 0.30875683
0.00582294 0.01240407 0.48298903
0.07555644 0.01373473 -0.35825186
-0.09163314 -0.07895421 0.21779413
0.09029106 0.01532349 -0.26655441
-0.03411795 0.05791400 0.16441336
-0.07261408 0.06119600 -0.26096649
-0.09988415 0.00208722 0.34671771
0.09682218 0.03035633 -0.1367266
0.02936532 0.04723700 0.22971996
-0.06020949 0.06119600 0.12658843
0.04756847 0.05791400 0.23755613
0.02804914 0.01349213 0.4885603
0.05011175 0.01237419 0.45649738
-0.1271373 -0.04846916 0.1269173
-0.02828111 0.01992000 0.22379349
-0.00411645 0.06119600 -0.1107041
0.08596246 0.05791400 0.16045542
-0.10367689 -0.03656495 -0.26392532
-0.1021305 0.02588987 -0.01810105
0.0807952 0.03059700 0.23178828
-0.02567444 0.04723700 0.21408468
-0.07834552 0.06119600 0.05960013
-0.0481572 -0.02393110 -0.18772031
-0.09756601 -0.09302500 -0.10847102
0.03203726 0.07610464 -0.24592759
0.03793589 0.05791400 0.28838121
0.03310429 0.00952030 0.37391323
0.12966409 0.00923300 0.13984708
0.00810789 0.06119600 0.0608918
0.03435662 0.06119600 -0.10781687
-0.10129337 0.01043830 -0.12602907
0.05429995 -0.02794516 -0.18077023
-0.00547253 0.05942998 -0.29308307
0.0443568 0.06119600 0.04487201
-0.03808748 0.04382404 -0.30235592
-0.09000929 0.03251012 -0.20600557
0.07603274 0.00923300 -0.34134522
-0.13050208 -0.03714556 0.11975418
-0.07525452 -0.05548650 -0.14271232
-0.0280629 -0.01326274 -0.30607838
0.05869638 0.03658400 0.23287279
-0.04596088 -0.02254168 -0.27360897
0.05845662 0.01403700 -0.3613893
-0.10916948 0.03042657 0.20359903
-0.04647596 -0.02286753 0.2459183
0.01360723 -0.00938863 0.04641785
-0.00696196 0.00095200 0.46278902
0.07337673 0.03658400 0.22638239
-0.05997186 -0.03414813 0.20743145
-0.13067343 -0.03632116 0.12219142
0.02422941 0.03059700 0.22911787
-0.08181059 -0.08709293 -0.36061199
-0.12278371 -0.03968595 0.19105309
0.09999721 0.00992053 -0.15696145
-0.00500193 0.06119600 -0.20266896
-0.10665237 0.03181343 0.05003025
-0.04659986 0.03658400 0.19022766
0.03641359 0.05192600 0.23430425
0.07302684 -0.04940842 0.2310463
0.06679774 0.03895024 0.30019859
-0.10993618 -0.08649839 -0.05774006
-0.00193233 -0.00836600 -0.22067719
0.05302421 0.05791400 0.2212556
0.001222 0.04723700 0.18103633
0.02759942 -0.01279599 0.0561104
0.09029024 -0.09302500 -0.06155128
-0.03725083 -0.03504108 0.37856701
-0.0349153 0.03658400 0.24272967
0.059305 0.06942088 -0.18042565
-0.02151809 0.01992000 0.20934793
0.12130059 -0.06804781 0.12668152
-0.04580512 0.03059700 0.33441056
0.01417737 -0.00947018 -0.19942419
0.12014981 -0.05651141 0.16804145
0.08471913 -0.07900171 0.19583589
0.02467439 0.01363453 0.49213163
-0.08743627 0.06774900 -0.13270776
0.10843629 -0.04774408 -0.1857331
-0.05375855 0.06119600 0.13353072
0.08601999 -0.08551470 0.20392371
0.06952993 -0.04425567 -0.21312283
0.09241695 0.05791400 0.21662517
-0.10548557 0.00923300 -0.05946806
0.01743606 -0.04841534 0.37857666
-0.0905514 0.01646372 -0.24718532
0.05055556 0.06368470 0.28944524
0.0392972 0.04723700 0.18787875
0.09544484 -0.08884278 -0.25934914
-0.10438133 0.01230704 0.35790974
-0.10649382 0.01388161 -0.30431069
0.08501517 0.06119600 -0.03176192
-0.02446142 -0.01221320 0.32608017
-0.0349048 -0.01631152 -0.28420327
-0.13181636 0.00724538 0.00619214
-0.08513336 -0.08896436 0.0554802
0.04425977 0.02590800 0.1902087
-0.01661317 -0.03783205 0.39662997
-0.0958388 -0.05835524 0.2455862
0.12840985 0.01037077 0.28474118
-0.11426238 -0.06791975 -0.04520498
-0.07468673 0.06119600 -0.26132136
0.04916582 0.03059700 0.23819664
-0.03662115 0.08144365 -0.18275614
-0.06169564 -0.03362759 0.35458571
-0.0106014 -0.00912152 -0.29721983
0.06692759 -0.04062872 0.20031511
0.11818547 -0.06100639 -0.02252908
-0.02962919 0.00923300 0.39786548
0.04568188 0.05192600 0.21377484
-0.11034654 -0.01022910 -0.23894945
0.02295993 0.06119600 -0.11743307
-0.04939838 -0.02475999 0.21614768
0.00421666 0.05192600 0.27206657
-0.04753413 0.04124900 0.24045002
0.06377299 0.02590800 0.21374427
-0.10341848 -0.04172971 -0.25474464
0.01945591 0.06119600 -0.07553206
0.13226034 -0.01858494 0.1947732
-0.07179665 0.04124900 0.16596176
0.07489065 -0.08289987 -0.27751889
-0.07946718 0.04723700 0.19190432
0.0417167 0.06119600 0.2750345
-0.03220704 0.04723700 0.26112941
0.10919177 -0.00279498 -0.28563592
-0.0296881 0.06119600 -0.2440981
-0.01277775 0.05791400 0.24944948
0.08681457 -0.11219345 -0.28362337
0.10376489 -0.08353455 -0.16076722
0.0296707 0.06119600 -0.22890972
-0.10940009 0.00923300 -0.09038154
0.04648154 -0.02215115 -0.2654278
-0.1070463 0.00923300 0.29111069
0.01548049 0.03658400 0.22055631
0.12279959 -0.06387742 0.04637777
-0.0068156 0.03059700 0.19368769
0.00443349 -0.00836600 -0.2549851
-0.00707463 0.06119600 0.09103889
0.05714018 0.05192600 0.22704672
0.0799508 -0.11117343 -0.34239857
0.09157488 -0.09662937 -0.35898402
-0.08068461 0.03059700 0.27930048
0.10054362 -0.04971287 0.25194655
0.062191 0.04723700 0.17674346
0.10193129 0.03059700 0.23431498
0.12130427 -0.01956775 -0.08214445
-0.02685697 0.00578705 -0.3531112
0.1103933 -0.06177557 -0.12514401
0.0037757 -0.00836600 0.23711455
0.09792692 -0.03970985 -0.34633606
0.11757856 0.01299316 0.19974381
0.04216506 0.03059700 0.21252321
0.00152416 0.05756568 -0.29442277
-0.03242376 0.04723700 0.19096069
0.01039431 0.01992000 0.28522962
-0.08682637 0.06119600 -0.03963452
0.03202561 -0.01449648 -0.15866791
-0.01922155 0.00923300 0.46280679
0.07489725 0.03096350 -0.28697381
0.03252951 -0.01091082 0.43402022
-0.00149505 0.01992000 0.16118848
0.02232719 0.01992000 0.29077689
-0.08310417 -0.07661577 -0.04039569
0.13804984 0.00923300 0.18830073
0.09479548 0.01992000 0.15205356
0.0641704 0.02590800 0.27907605
0.10815181 0.04804556 0.09775894
0.06985753 -0.04473845 -0.16388338
-0.11105889 0.00257530 0.32031575
-0.02017227 0.06119600 -0.08577033
-0.00012265 0.06119600 -0.09325737
-0.00506479 0.06119600 -0.11758125
0.02456282 0.04124900 0.28912674
-0.04114027 0.06119600 -0.10287756
0.12125477 0.01318000 0.12981602
0.09234423 0.01314871 -0.056173
-0.12422227 -0.01043617 -0.05236149
-0.01926548 0.02590800 0.18264006
-0.01974097 0.06119600 -0.03213132
0.0542536 -0.02790594 -0.21104725
0.11479422 0.01008488 0.04048984
-0.10253328 -0.09922154 -0.27989135
0.08401452 -0.07547405 -0.14792227
-0.09043705 0.03658400 0.2036979
-0.0216238 -0.01138626 0.1922907
-0.10456975 0.00934826 -0.03184511
0.09153987 -0.00639862 0.35162587
-0.11042205 -0.04231743 0.23490608
0.10333194 0.00923300 0.28503053
0.00837537 0.03658400 0.16361158
-0.08244162 0.04684963 -0.26103163
-0.08091002 0.04723700 0.24830569
0.06134743 0.01992000 0.28206964
0.08296695 -0.07167306 -0.13457293
-0.06281255 0.06119600 -0.14035652
0.06620625 0.04124900 0.1893667
-0.07926053 0.04723700 0.18644539
0.04495571 0.02590800 0.22109783
-0.10271015 0.06659083 0.1685668
0.06091576 0.04723700 0.15107552
-0.03692693 -0.02910579 0.39643852
-0.05437163 0.06119600 0.10283903
0.07553821 0.03000076 0.29854523
0.0793051 0.03658400 0.24729992
-0.12418222 0.00402652 -0.08830572
0.10639943 0.03996300 0.05655048
-0.02511102 0.04723700 0.18691916
0.07982062 0.03658400 0.26880597
0.01393876 0.04124900 0.28857393
-0.0255644 0.06119600 -0.1532685
-0.08410523 -0.08162668 -0.1693221
0.09066747 0.06119600 0.04294675
-0.04340605 -0.02814337 0.39009081
-0.13302664 0.00923300 0.11885447
0.0999517 0.04354052 -0.00981723
-0.0142705 0.03059700 0.28971329
-0.10125391 0.00818400 -0.16942277
0.07741108 0.05791400 0.22034463
0.00180954 0.03658400 0.32424548
0.06993179 0.06238204 -0.19226082
-0.04822063 0.06119600 -0.11292522
0.07143385 0.05680264 0.14898901
-0.05569464 0.02590800 0.17727948
-0.02306494 0.01992000 0.36268513
-0.04017538 0.03059700 0.15341848
0.09235862 0.05192600 0.20969864
-0.01483329 0.00923300 0.41915713
-0.03263298 0.06119600 -0.2055051
0.10440218 0.06119600 0.11713916
-0.12732339 0.00799209 -0.05588937
0.05074384 -0.02493555 0.03136504
-0.00063146 0.17294716 0.17702584
-0.10241926 0.04723700 0.1854797
-0.07006278 -0.04671784 -0.00256466
-0.10124213 0.06727087 0.06182357
0.0857445 0.04772296 -0.0587128
-0.10546872 0.02590800 0.18007113
-0.07478916 0.01992000 0.23385365
0.09096346 0.04264259 -0.1757707
0.04872628 0.06119600 -0.23577623
0.11792221 -0.01286679 -0.14390388
-0.04919914 0.01194322 -0.35512754
0.1191493 -0.07522894 0.02521467
0.0535717 -0.02732883 -0.21532304
0.05866337 -0.03163803 0.27130219
0.08313814 0.06119600 -0.03450082
0.08382706 0.06774900 -0.19148648
-0.00393713 -0.00836600 -0.06315768
-0.01065225 0.02704663 0.35386659
0.02198724 0.01992000 0.30158971
-0.13862833 0.00160232 0.1113594
0.0081369 -0.00860615 0.22145509
-0.09820703 0.03059700 0.16324206
-0.06222915 0.03658400 0.16849573
-0.02152399 0.06119600 0.19625474
-0.06349631 0.06382839 -0.21261676
-0.11955306 0.01255437 -0.1632412
-0.04469128 0.06119600 -0.22969408
-0.06596676 0.03658400 0.1804732
-0.01378505 0.05791400 0.17699786
0.0104113 0.02590800 0.34587119
-0.04608986 0.07681019 -0.18116808
-0.02062545 0.05192600 0.27310994
0.09794386 0.00818400 -0.2191777
-0.00521171 -0.00836600 0.15970222
0.11883709 -0.00185940 -0.15858023
0.10231137 -0.07280345 -0.20652765
0.08462422 0.06459952 -0.20220893
0.05826858 -0.03130390 -0.07618212
-0.07917539 -0.02561274 -0.35008785
-0.13414181 0.00073011 0.05332741
-0.09419738 -0.08842915 0.19290938
-0.04041192 0.02360081 -0.31575349
0.10490252 0.05841283 0.08622112
-0.09437208 0.06119600 0.12395374
-0.07269179 0.03338353 0.29685001
-0.129847 -0.02930592 0.06926264
-0.08811605 0.05192600 0.21496236
-0.01430625 0.09199754 -0.23975335
-0.10168158 -0.07136031 0.20517692
0.00283903 0.06119600 0.06744751
0.07392295 0.06774900 -0.26469835
-0.04254265 0.06774900 -0.08346851
-0.11079031 -0.02605548 0.26668581
0.09299191 0.00547598 0.36983243
0.05916981 -0.03206664 -0.29008535
0.10166464 -0.06029902 -0.24580865
0.01726648 0.04723700 0.20880051
0.02516224 -0.01208568 0.21538463
0.02640794 0.03059700 0.28543714
-0.02471557 0.01992000 0.21995768
0.04587968 0.01992000 0.21070463
-0.0283254 0.01150582 0.47524097
-0.01627336 -0.00993291 -0.32371849
-0.08044089 -0.06761135 0.06458656
-0.05549324 0.06119600 0.05631115
-0.12332738 -0.05025367 0.15890245
-0.09067025 0.05192600 0.21009391
-0.12129788 0.00923300 0.20765673
-0.00046315 0.06289025 0.29605725
0.04598407 0.03658400 0.23431124
0.1045602 0.00818400 -0.12978151
0.09855518 -0.10643804 -0.27630067
-0.11066122 0.00521585 -0.27254224
0.05573232 0.02590800 0.32443808
-0.09104566 -0.09210162 -0.27601797
0.04402358 0.03658400 0.17285722
-0.06338256 0.03059700 0.23592038
0.02461406 -0.01192592 -0.02321808
0.02392695 0.03059700 0.29145391
-0.04015579 0.04124900 0.32349895
-0.11383415 -0.09302500 0.05892874
-0.07524708 -0.05547156 -0.33531583
0.01700405 0.01992000 0.31597966
-0.07198722 -0.10377696 -0.32567222
0.04725403 0.05192600 0.30152812
0.08259514 0.01046288 -0.35254588
0.09119682 -0.08537403 0.20938965
-0.01287534 0.03658400 0.33253253
0.11793477 0.00078583 -0.17715582
0.09070776 0.04723700 0.21306693
0.09925333 -0.01223959 0.32427247
-0.065923 -0.04077730 0.1972239
0.06518734 -0.03869011 -0.33847998
0.10724006 -0.09302500 -0.00986408
-0.0403129 0.05791400 0.23273922
-0.08532801 -0.09192874 0.08947631
0.05589025 -0.02929107 -0.2271033
0.04767939 0.06119600 -0.02227819
0.09285512 0.03059700 0.15686366
-0.09672167 0.04124900 0.18843398
-0.05926686 0.03658400 0.20685184
-0.00033884 0.06119600 0.15479879
0.08385385 0.01992000 0.1533147
-0.08709963 0.04243404 -0.21391416
0.13267196 0.00923300 0.06079246
0.0317126 0.03658400 0.18331536
-0.02715553 0.05578046 0.14898901
0.07412999 0.04124900 0.18120296
0.11581835 -0.05229612 -0.07559711
-0.08057568 -0.06800558 -0.07300226
-0.13252626 0.00511205 0.02093519
-0.04147588 0.02590800 0.28283053
0.06934608 -0.04398450 0.32291243
-0.09225869 0.01992000 0.20163331
-0.05850374 0.06221289 -0.15009999
-0.06662713 0.05791400 0.20148641
-0.04932487 -0.02469777 -0.08104637
-0.10026897 0.04124900 0.19562466
-0.05988731 0.01992000 0.27147746
0.02202364 0.03059700 0.17978416
-0.08489289 -0.08989031 -0.34493228
-0.10048007 0.06237025 0.07626376
0.08704612 0.03658400 0.22138079
0.11993537 -0.06278165 0.15235006
0.00599324 -0.00836600 -0.18333095
-0.10453527 -0.04647479 -0.22814839
0.05882271 0.01003915 -0.10066966
0.01295002 -0.00929462 0.06531995
0.04996766 -0.02435651 -0.06803482
-0.01406687 0.03658400 0.24475064
0.03610427 0.05791400 0.29222286
0.07842826 0.04124900 0.25513832
0.10231414 0.02590800 0.16324821
0.06817478 0.03658400 0.19630723
-0.00678429 0.04723700 0.1508182
-0.0600903 -0.03428014 0.13723918
0.04972775 0.06119600 0.00950623
-0.04266363 0.01992000 0.31750829
-0.01724592 0.09648700 -0.21723846
-0.10051923 0.00923300 -0.27199228
-0.03207178 0.07566476 -0.16108228
-0.09148266 -0.09275558 -0.318854
0.00883617 -0.04353081 0.38690885
-0.03488039 0.06119600 -0.01719808
0.05998592 -0.03289609 -0.17440769
-0.02220635 0.01992000 0.15406261
0.09863123 0.05811566 0.01200272
0.10880464 0.05285793 0.12213712
-0.07493211 -0.05483931 -0.1872006
-0.02863475 0.06119600 0.19378133
-0.02603017 0.01992000 0.24363858
0.01918477 0.04220485 -0.30546118
0.120617 0.01080960 0.31261197
0.09059528 0.03059700 0.20820739
0.05658689 -0.02988065 0.27654899
0.07636671 0.02590800 0.18021334
0.1026259 0.00923300 -0.1761314
-0.01804945 0.03658400 0.16410427
-0.05990074 0.05192600 0.1727373
0.03338184 0.01318000 0.3769441
0.02267844 0.00246861 0.46537609
0.00571039 0.03059700 0.18037008
0.04535833 0.04483620 -0.07997863
-0.01831733 -0.01042268 -0.13712573
0.11871679 -0.07293161 0.01379027
-0.01452779 -0.00968320 -0.20109789
-0.03980045 0.03658400 0.31908868
-0.05386444 0.06119600 -0.15081441
0.02599193 -0.01232750 -0.20890566
-0.11687204 -0.02352954 -0.1188802
0.05350376 -0.02727134 -0.09758158
0.07892463 -0.06056941 -0.15185254
-0.12655439 0.00923300 0.12751475
-0.00104527 0.05791400 0.18669364
0.11411219 -0.07707093 0.1495588
0.08943494 0.02733019 -0.2415912
0.07738169 0.04124900 0.21072554
-0.08485846 -0.08539688 0.09806042
0.08385164 -0.07465851 -0.04196339
0.08127719 0.06314483 -0.24559919
0.09621354 -0.09302500 -0.02062125
0.10931564 -0.08714635 -0.07748615
-1.407e-05 0.08967648 -0.25738346
-0.02363606 0.03059700 0.20521056
0.12985872 -0.02165090 0.03767089
-0.09891949 -0.09121094 -0.19394522
0.12417662 -0.04626511 0.02172814
0.07918843 -0.06109895 -0.2010087
-0.07942769 0.01992000 0.18205613
0.05026548 -0.02454492 0.12906437
0.02679514 -0.01256159 0.30366522
0.11511286 -0.07283076 0.15476281
0.06404153 -0.00846142 0.3959453
0.06159539 0.03059700 0.31739308
-0.06700207 -0.10305601 -0.35647515
-0.05725655 -0.03141126 -0.25308145
0.00474013 0.06119600 -0.15806264
-0.01882074 0.06119600 0.30026984
-0.08373232 -0.07975865 0.21328223
-0.05508041 -0.02956935 -0.0074474
0.01547333 0.03658400 0.18996816
-0.07409579 -0.10430402 -0.27524599
0.07940689 -0.06153748 0.11181008
0.10970257 0.01381825 0.02834867
-0.05137242 -0.02643085 0.05331115
-0.02436329 0.06119600 -0.20491129
-0.0991477 0.01992000 0.16166195
0.01895642 0.03658400 0.17363071
0.00286663 0.02590800 0.35463677
-0.11532808 -0.07633664 -0.01030905
-0.02526866 -0.01244845 0.18508866
0.03194103 0.04124900 0.30642732
0.12133453 -0.02697017 0.23129363
0.07187954 -0.10425430 -0.31451255
-0.09328848 -0.05348353 -0.34740432
0.08520772 -0.01227303 0.35318662
0.13227882 0.01037772 0.03408484
0.11220189 -0.02340527 -0.19481749
0.06328787 -0.03657453 0.13639362
0.08457838 0.03059700 0.20160609
-0.11990146 -0.00082556 0.28746918
0.03249635 0.03059700 0.27708731
0.00670623 0.06119600 0.16737525
-0.10241444 0.05973895 0.07182362
0.11349149 0.01388238 0.22282202
0.08133864 0.04124900 0.24622805
-0.07375531 -0.05247701 -0.22302928
-0.07768306 -0.06036151 -0.12873475
-0.02126656 -0.01128215 -0.25833512
0.07823717 0.03059700 0.24819449
-0.0155708 0.06119600 -0.14612161
-0.02940342 0.01992000 0.34244985
-0.11777093 0.00923300 -0.08485104
-0.04132571 -0.01960940 0.11485405
0.07374337 0.06119600 0.20761258
-0.1202309 0.00141505 -0.13490182
-0.03770745 0.04723700 0.24280225
0.09117646 0.06119600 0.05238924
-0.03035559 -0.01425611 -0.2674313
0.11183711 -0.04992065 -0.13479619
0.05078047 0.01226298 -0.07277434
-0.00907701 0.01992000 0.18123402
0.10238574 0.01561680 0.26075609
-0.10271457 -0.09260445 -0.32034629
-0.06947735 -0.09551911 -0.27524651
-0.10754532 0.03797934 0.1953193
-0.00144801 0.04064791 0.33602631
0.04052705 -0.01838425 0.01485535
0.06078327 0.03658400 0.20409226
-0.07219052 -0.10408127 -0.29836509
0.08399966 -0.07539965 -0.30741253
-0.08432314 0.01992000 0.2682873
0.04193382 0.06119600 -0.0098147
-0.06940171 0.03079926 0.30582312
0.02118717 -0.01092717 -0.15676581
-0.02492177 0.06119600 0.07082218
0.02442042 -0.01186948 -0.152229
0.10581828 0.01074497 0.26085423
0.13250176 0.01076413 0.26762027
0.10065441 0.00923300 0.33407526
-0.11699574 0.00993972 0.11341171
0.09003332 -0.09302500 0.04769443
0.11581022 -0.08079734 0.12939055
-0.00179515 0.04124900 0.31409566
-0.00156439 0.03658400 0.23071047
0.03608448 0.00974505 0.46582054
0.07766162 0.06119600 -0.16133523
0.06668688 0.04124900 0.29341711
-0.02494678 0.03059700 0.24438634
-0.03735567 0.03059700 0.17424649
0.00356818 0.02590800 0.27677674
-0.08823477 0.03059700 0.17603341
-0.00507165 -0.00836600 0.18351527
0.03862904 0.04723700 0.22195838
-0.00967306 -0.00898872 -0.17801332
0.05357154 0.05192600 0.28322595
-0.06295334 0.05791400 0.2202183
-0.04589139 0.03658400 0.23862139
0.01179157 -0.00912892 -0.2583559
-0.07581244 0.03059700 0.24481746
-0.08991699 0.05791400 0.14916207
0.07679659 -0.05629761 -0.08884972
0.0507773 0.05791400 0.26110756
0.13908484 0.00538936 0.09520279
0.02557958 0.06119600 0.24897033
-0.06954782 -0.09587344 -0.29331968
0.03870426 0.05192600 0.29374384
0.02061809 0.06119600 -0.23579365
0.13481563 -0.02234125 0.15283433
0.08574119 0.02590800 0.20309432
-0.02898637 0.01520063 0.44192574
0.0961558 0.05791400 0.17005268
-0.06140893 0.03059700 0.29356044
0.01121357 0.06119600 -0.17718811
-0.04420378 0.06119600 0.0688295
-0.04342548 0.00923300 0.38837516
0.10920998 0.01318586 0.0209614
-0.04726263 0.00923300 -0.08045038
-0.11596886 0.00923300 -0.08246653
0.09488749 0.01889963 0.27538443
-0.12779773 -0.00923947 -0.00734358
-0.08832028 0.02317150 -0.25596143
0.10642018 0.01992000 0.18946019
-0.10437623 0.04908567 0.06754648
-0.0881708 0.04922631 -0.17962565
-0.01897282 -0.01061371 -0.04329124
-0.082101 -0.06068261 0.27184187
-0.13656511 -0.01372498 0.13323048
-0.10062775 -0.10397458 -0.27844154
-0.09203279 0.01403700 0.38882031
-0.10038354 0.03658400 0.21836234
0.03965995 0.06119600 -0.20734278
-0.01970644 0.05192600 0.16918532
-0.08502732 -0.08735128 -0.08897672
0.00181182 -0.00836600 0.1168717
0.12262734 -0.05990992 0.03435503
0.11977416 0.00923300 -0.07474069
-0.04857467 0.05791400 0.1907036
0.09315909 0.04236520 -0.14813987
-0.10922793 0.03735890 0.18676827
0.06347622 0.00923300 0.38034365
-0.01698399 -0.01003457 0.04948772
0.01787835 -0.00999958 0.05646919
-0.01372986 -0.02201769 0.42360661
0.00377459 -0.00836600 0.0520654
0.04694497 0.05192600 0.25788002
0.02075801 0.04723700 0.23867969
-0.06776402 0.06500477 0.26205112
-0.05188173 0.06119600 -0.26118331
0.01085766 0.09034300 -0.23437335
-0.08689113 -0.04956750 0.2818707
-0.00570414 0.04124900 0.31444481
-0.09277705 0.04461146 0.14898901
-0.04053568 -0.01910962 0.32492734
0.08756367 0.04667145 -0.20774284
-0.14218343 0.01112187 0.17794968
0.1068852 0.01508431 -0.00141346
0.02442389 -0.01187050 -0.22483433
0.00176756 0.03059700 0.34192971
-0.12126488 -0.01945385 -0.0699465
0.12469462 -0.02768047 -0.01682209
-0.12989156 -0.03957144 0.10563848
0.06943527 0.05791400 0.24849371
-0.06362026 0.03059700 0.26650543
-0.06351118 0.01052467 0.34478462
0.02411036 0.06119600 -0.2092286
-0.00554005 0.04124900 0.2703294
0.01396139 0.02590800 0.19393184
-0.07697047 0.06119600 -0.18758515
-0.00194049 0.03059700 0.29399919
-0.12924235 -0.00645573 0.00521443
-0.01469811 -0.00970757 -0.19408982
-0.08788296 0.01992000 0.15457219
0.08363217 0.06119600 -0.0410264
-0.05705883 0.06119600 -0.2396774
0.05821927 0.06119600 0.17454297
0.1049044 0.00818400 -0.11314842
0.04214311 0.01239040 -0.3559074
0.05757329 0.05588918 -0.28051875
-0.11988183 -0.06816774 0.13113055
0.01707998 0.01992000 0.24307954
-0.13437313 -0.00935283 0.08111409
-0.01691105 0.03059700 0.18608614
0.08847839 0.00923300 -0.3374891
0.08761353 -0.01002398 -0.35158879
0.10418615 -0.02720730 0.2848729
0.04587893 -0.02176992 -0.08556158
0.07620301 0.03059700 0.21661469
0.10006168 0.04723700 0.1669589
0.01636122 0.03658400 0.27408846
0.09479271 -0.04006427 0.28369044
0.11614079 0.02645329 0.14161609
0.00455957 -0.00836600 -0.04358481
0.086182 -0.08760092 -0.06068872
0.03176947 0.06119600 0.20636645
0.08943795 0.04669349 -0.18338364
-0.05742575 0.03991357 0.3111805
-0.00968681 0.06119600 -0.26720701
0.02946036 0.04124900 0.23719688
0.07073827 0.01992000 0.26777017
0.05049301 -0.02472327 -0.15760451
0.06156388 0.01992000 0.32413207
-0.08123278 -0.09811119 -0.33185764
-0.08055063 -0.09526272 -0.3542887
0.04564616 0.03059700 0.25938632
0.00800304 -0.04521792 0.38403092
-0.02652262 0.01992000 0.29125605
0.01476086 -0.04156223 0.39026691
0.03155211 0.06119600 0.07593025
0.01954708 0.05791400 0.18747168
-0.03726669 -0.01737867 -0.09773264
-0.03780694 0.04723700 0.23068691
0.06770685 -0.03382489 0.34610758
0.0684217 0.06151237 -0.06076035
0.08178515 -0.11153826 -0.33687409
-0.02932701 0.02590800 0.249602
-0.07915599 0.03059700 0.24299255
0.00461295 -0.00836600 0.29589367
-0.05528342 0.04124900 0.22248484
-0.03416283 0.05791400 0.15853977
-0.05197175 0.05192600 0.23763725
0.01978095 -0.01051733 -0.12897189
0.10517016 -0.05082819 -0.22198271
0.03997098 -0.01808635 0.21007901
0.03595926 0.03059700 0.27349752
-0.04607833 0.06119600 -0.05647174
0.10478251 0.02590800 0.22701355
-0.06240072 -0.02512188 0.36817553
0.03865628 -0.01749235 0.20859868
-0.02328816 0.01992000 0.30738953
-0.09996255 -0.09302500 0.15925511
0.08460399 -0.07842538 -0.14027357
0.10340488 0.01992000 0.15362828
0.03740499 0.06119600 -0.21083223
-0.07160052 -0.04898381 0.2131401
0.01188077 -0.00914168 0.34614572
-0.05210003 0.06119600 -0.22282748
-0.00833021 -0.00879662 0.21500041
0.06644041 -0.04008598 -0.33966239
-0.08770976 0.04052800 -0.2117306
-0.09550739 -0.09048712 -0.24147512
-0.02043956 0.03059700 0.30524669
-0.06941738 -0.04576671 0.13666726
0.05395964 -0.02765716 0.1247742
0.07797136 -0.05865582 -0.34428987
0.09306216 0.01319767 -0.23701823
-0.0564613 0.02590800 0.21938285
-0.10926435 0.00923300 -0.03234017
0.1259935 -0.02267126 -0.01166257
0.01774611 0.02977748 0.35028486
-0.13024384 -0.01450836 0.2124542
0.12298536 -0.00348371 -0.09897471
-0.11495063 -0.08872419 0.01495417
0.11406748 0.00994834 -0.24879107
-0.04304879 0.03658400 0.21962504
0.11406509 0.02611894 0.18913315
0.00459332 0.01992000 0.27967008
0.08789545 0.03756133 -0.11095332
-0.06582207 0.01120912 0.42228642
-0.04322041 0.02274448 0.14898901
-0.05491067 -0.02942567 -0.15409021
-0.02454193 0.00993416 0.377231
-0.0956152 -0.08239847 0.20054419
-8.206e-05 0.06119600 -0.16630431
-0.08844161 -0.06592107 0.24873103
0.0254998 0.06119600 -0.12801241
-0.07889189 0.02979498 -0.28438792
-0.03931268 0.01992000 0.3171141
0.00324438 -0.00836600 0.22916368
-0.03228361 0.01992000 0.19744889
0.01261744 0.03059700 0.29980856
0.07095283 -0.02486913 -0.35015937
0.14077767 0.00439199 0.19383108
-0.02898928 0.05192600 0.25340407
0.00352834 0.05192600 0.15789554
-0.07699597 0.01318000 -0.05666938
-0.0458332 -0.02246091 -0.09114557
0.01283673 0.03059700 0.29487673
-0.03258582 -0.01526376 -0.08610005
0.06060371 -0.03358455 0.13429375
0.00950884 0.02590800 0.33775092
-0.03716164 0.08755134 -0.20807331
-0.00402962 -0.00836600 -0.33685288
-0.01950022 0.04124900 0.32971154
0.10532604 -0.07735313 -0.1549638
0.12684027 0.00923300 0.08609264
-0.07918478 -0.06393364 -0.12668338
-0.07684347 0.04974423 -0.0588462
0.048197 -0.02323637 0.00745297
-0.06505028 -0.03980512 -0.0147129
0.11191196 -0.08782803 0.13485847
-0.09155493 -0.07957962 -0.29186421
-0.09854179 0.06638037 0.18975461
-0.08767307 0.00923300 0.33226201
-0.11823527 0.00923300 -0.12330918
0.09172218 -0.09302500 -0.05202653
0.06361113 0.06119600 -0.19659343
-0.02004449 0.06119600 -0.1820528
-0.01076517 0.01992000 0.36273475
-0.10558947 0.01074973 -0.02019539
-0.04667849 -0.02299565 0.335669
-0.0642113 0.02590800 0.20154928
0.08859348 -0.09302500 -0.15361702
0.10301658 0.06119600 0.13405285
0.04501163 0.02590800 0.21402938
-0.02918468 0.03658400 0.27356947
-0.02418776 0.06119600 -0.28278247
-0.02151769 0.08971031 -0.19355523
-0.08949466 0.04723700 0.21415935
-0.07839225 -0.10419356 -0.3616174
-0.09306822 -0.08477202 -0.28817114
-0.07003642 -0.04667912 -0.33402269
0.02753112 0.02590800 0.29055905
0.03747833 0.05192600 0.18123251
0.06437375 0.02500560 0.32320664
0.07027365 0.02590800 0.21159772
-0.13486656 -0.00583675 0.07912371
0.11297165 0.01297052 0.0549135
-0.13051004 -0.03308219 0.08739856
0.08044924 0.00923300 0.33736627
0.09282512 0.05791400 0.18159155
-0.12574357 -0.00465163 -0.04612095
-0.10533097 -0.10660574 -0.35911265
-0.05066389 0.05791400 0.26303507
0.05548618 0.01992000 0.16396553
-0.06676654 -0.04185998 -0.30649773
0.10338726 -0.06210216 -0.21829456
-0.11836045 0.01198923 0.19695076
0.10434762 -0.06250650 -0.20442379
-0.09334468 0.00818400 -0.25328623
-0.0728722 0.03658400 0.20956825
0.09533872 -0.10582372 -0.27524599
0.03318571 -0.01502064 0.22700776
0.09406849 0.02590800 0.15511439
0.12970629 -0.01802091 0.02674007
0.06885054 0.04124900 0.19794824
0.00864213 0.06119600 0.16573067
0.07001061 0.06119600 -0.14545791
-0.02613809 0.06119600 0.21140704
0.09509625 -0.06102178 -0.33212224
-0.08577558 0.04723700 0.17614877
0.12695123 -0.04848125 0.06436265
-0.12610384 0.01376802 0.29738565
-0.0843344 0.01992000 0.15403016
-0.06859508 -0.04455493 0.18755009
0.08234633 0.06659849 -0.23173904
-0.06374409 0.03059700 0.18355087
-0.00912228 0.06120542 -0.11538254
0.07344303 0.06119600 0.0843319
0.00991966 0.03658400 0.22400764
0.06525222 0.04162540 -0.28576722
-0.11680464 -0.05276056 -0.04822241
-0.03144613 0.06119600 0.08853131
-0.03222637 0.04723700 0.21070185
-0.03146911 0.08685508 -0.24059624
-0.08484415 -0.08532527 -0.08754159
-0.0749193 0.05791400 0.2003656
-0.03299813 0.06119600 0.30161127
-0.1032844 0.01632718 0.25369446
0.0776221 0.01154601 0.32429051
0.1197431 -0.05232971 -0.02288155
-0.06306519 0.05791400 0.23851843
0.07770943 0.02590800 0.17999792
0.05351482 0.02080383 -0.07082196
-0.04264884 0.04723700 0.19943578
0.08607138 -0.11234126 -0.32942537
-0.06830174 0.05932497 -0.10745067
0.06837061 -0.04254701 -0.1574275
0.06933828 0.06119600 0.01466417
-0.08857679 0.04723700 0.20768581
-0.03311903 0.06119600 -0.14572937
-0.08509866 -0.08843698 -0.02194175
-0.10322081 -0.01468277 -0.32360614
0.0736899 0.04723700 0.26361758
0.10209523 0.02380378 -0.03520872
-0.09590232 0.01096602 -0.35649852
-0.11960454 -0.00828682 -0.11954924
0.07739026 0.03118793 0.29341189
-0.02028996 0.05440272 -0.2966957
0.05491137 0.06119600 -0.02353358
0.00517148 -0.00836600 -0.2363958
0.10245646 0.04666765 0.02751883
0.11011713 0.04274551 0.10721837
0.00808973 0.06119600 -0.14388039
-0.05017548 -0.02541774 0.16102705
-0.12601854 0.01403700 -0.03901703
0.03191322 -0.01444570 -0.25293058
-0.06177919 -0.03616149 -0.03981249
-0.11631546 -0.02017068 -0.13456694
-0.02839448 -0.01337004 0.28256232
0.12511333 -0.03589489 0.0089027
-0.06715977 -0.04243981 0.22914762
0.04962738 0.01992000 0.24899532
-0.10886575 -0.08546510 0.14935641
0.00088377 0.04723700 0.27303109
0.09666699 0.02036739 0.26847629
-0.09377389 -0.09302500 0.13758084
-0.02057974 0.03059700 0.31904918
0.02823987 0.06119600 -0.18131803
-0.01972403 0.03059700 0.17257975
-0.09740349 -0.09187004 -0.21266256
-0.1093484 -0.00761311 -0.25873966
0.08281921 -0.07124117 0.08775749
-0.00155005 0.06119600 -0.24986354
0.03026483 0.06119600 -0.09978309
-0.06149231 0.06119600 0.02473449
0.00063189 0.06119600 0.30412293
-0.05459726 -0.02916040 -0.09039798
-0.03093071 0.06119600 -0.254929
0.12633001 0.01018803 -0.0460023
-0.00999063 -0.00903415 -0.08101316
-0.11519557 -0.02688470 -0.13314836
-0.06177596 0.06119600 -0.16075968
-0.09562695 0.01122416 0.29374367
-0.11570633 0.00923300 -0.13816266
-0.00926181 0.06764352 -0.28982699
-0.00052121 -0.00836600 0.09723776
0.12573786 0.00923300 0.03923157
-0.05704218 0.03658400 0.22922461
-0.02295343 0.01992000 0.24861372
0.07355918 -0.08414721 -0.34506911
0.0096112 0.02226270 0.36014249
0.02318852 0.04124900 0.25847014
-0.12111833 0.01084419 0.199367
-0.09909303 -0.08747381 -0.35190299
0.03702522 0.06119600 -0.14321816
0.01218675 -0.00918545 -0.23589758
0.07733893 0.04124900 0.16054321
0.07535732 -0.05340846 -0.0106684
-0.02199608 0.04723700 0.21124364
0.05515179 0.00484314 -0.35302045
0.12172154 -0.02462143 -0.06417792
0.00629151 0.00923300 0.435671
-0.11617313 -0.04813068 -0.06802514
0.03312086 0.01381397 0.47829283
0.11302002 0.02721743 0.19412424
-0.10645998 0.00923300 0.29494229
0.00206532 -0.00907367 0.37856701
0.00394389 0.00598065 -0.35312994
-0.05171907 0.03658400 0.31204974
-0.02338078 -0.01189828 -0.11438617
0.01497087 0.03658400 0.30545126
0.0203064 0.04723700 0.25392415
0.05178426 0.06119600 -0.16636969
0.06181919 -0.03493825 -0.20959525
-0.11880313 -0.06431502 0.14920594
0.06956721 -0.03435240 0.34219055
0.08043406 -0.06425914 -0.19006277
-0.09576081 0.04189725 -0.05176092
-0.09609449 0.01069126 0.28501045
-0.13470771 -0.01854797 0.11327757
-0.09296187 0.04479125 0.2370146
0.07577874 0.03389665 -0.28418297
0.04651925 0.06119600 0.18542222
-0.10216092 0.00923300 0.32870127
-0.04691645 0.01462532 -0.077325
-0.10973659 -0.02895598 -0.20128839
0.0149728 0.03059700 0.23731146
-0.00605424 0.03455430 0.34401866
0.01661079 0.06119600 -0.11054878
-0.09799628 0.03751295 0.23424361
0.06845619 0.01992000 0.23527791
-0.05658046 0.01992000 0.20559169
-0.00452576 -0.00836600 0.12409684
-0.02621853 0.05192600 0.15254085
-0.04794185 0.02184797 -0.09424493
0.06867256 0.06119600 0.08283361
0.09100705 -0.09889964 -0.36070986
-0.11802199 0.00923300 -0.00830316
-0.09600198 -0.09302500 0.12877929
-0.08053299 -0.09556254 -0.33915594
0.09740981 0.01920307 -0.16261815
-0.04498401 0.05791400 0.17109737
0.04126214 0.03658400 0.2819963
-0.11267081 -0.01200309 -0.20343646
-0.06827759 0.04124900 0.21417857
0.00620333 0.04124900 0.3344861
-0.04788879 0.03658400 0.28337896
-0.06100027 0.05791400 0.21434055
0.09635576 0.06123064 0.20215868
0.08644759 -0.09164817 -0.09657514
-0.09498788 0.06553746 -0.0114367
-0.06691121 0.06119600 -0.04286066
0.03710149 0.05192600 0.30361519
-0.04533583 0.06119600 0.19806241
0.01504068 -0.00959367 -0.12438184
-0.04121083 -0.01953673 -0.1215422
0.05718292 0.00949762 -0.31523291
0.0196097 0.06119600 -0.26869374
0.08003282 0.06119600 0.2364207
0.01381681 0.04723700 0.16614787
-0.08949357 -0.09092200 -0.3567579
-0.02524841 0.02590800 0.21526762
-0.03873712 -0.01804304 0.17618662
-0.00933774 0.05192600 0.22522977
0.12187111 0.00927177 -0.10419972
-0.00536749 -0.02613092 0.41659012
0.05621823 0.03059700 0.22086771
0.10206307 -0.03540625 -0.30140414
0.00298349 0.13262211 0.21685617
0.11452615 -0.07331233 -0.04147684
0.01602285 0.01992000 0.32551471
0.00927317 0.04124900 0.18380725
0.04751119 0.03658400 0.29143059
-0.11900911 0.00256171 -0.15409412
0.00514982 0.01992000 0.26725142
-0.08148435 -0.07066618 0.11674729
-0.02408142 0.06119600 0.05655782
-0.04286584 0.01992000 0.17304861
0.01628703 0.01992000 0.21349065
-0.08406825 -0.08144262 -0.24585516
0.0588931 0.04723700 0.21189941
0.04649207 0.00936072 0.3698525
-0.07951471 0.06762424 -0.25587327
-0.00207311 -0.00836600 -0.32781259
-0.04721165 0.04124900 0.249277
-0.02323244 -0.01995459 0.37856701
0.08659143 0.06096140 0.2304547
-0.06770558 0.02412449 -0.06155805
-0.103123 -0.09625643 -0.34823525
-0.08088186 0.06119600 0.14848635
-0.03291592 -0.00093253 -0.3524642
-0.02695858 0.02590800 0.2195899
0.04018727 0.02590800 0.26413469
0.07217288 -0.04815008 0.1764433
-0.03095068 0.02590800 0.34766447
0.11643802 -0.09239691 0.08567606
0.06099454 -0.03401982 0.02698274
-0.06970204 -0.09664883 -0.2836352
0.03397284 -0.01990559 0.4169169
-0.00890895 -0.00887941 -0.0181363
-0.06646327 0.01992000 0.28513119
0.02693998 0.03658400 0.26244159
0.08159133 -0.06764636 -0.25039884
0.0631222 0.06119600 -0.01695209
0.00238268 0.05192600 0.18429516
0.13292112 0.00923300 0.08343716
-0.09372887 -0.08042715 -0.33367816
0.12516678 -0.01038120 -0.05283666
-0.06744437 0.03696826 -0.10689178
0.04182214 0.06119600 -0.01067161
-0.01180971 0.06119600 -0.14589316
0.00443004 -0.02498276 0.37856701
-0.0272529 0.06119600 0.20547209
-0.02919326 0.05108438 -0.29908028
-0.08798539 -0.09302500 -0.20673305
-0.08209034 -0.09151950 -0.35184883
-0.06336112 0.00818400 -0.31084401
0.02192527 0.02590800 0.2224617
0.07034049 0.03059700 0.14938475
-0.0931355 0.05372539 -0.05224645
-0.00932168 -0.00893845 -0.10551709
-0.0412072 0.08330620 -0.19696224
0.0981456 0.04723700 0.21786428
0.09771335 0.03059700 0.17615363
0.07544948 0.00923300 -0.3250919
-0.07249908 0.02590800 0.27402194
0.10250323 -0.09723073 -0.30793187
-0.00898147 0.01992000 0.25177945
-0.01694366 0.01992000 0.21136886
-0.04518455 -0.02205057 0.22346692
0.1355599 -0.01427981 0.17868336
0.0097927 0.03658400 0.28715286
-0.08755594 0.02951552 -0.24680416
-0.05673723 -0.03097170 0.34498234
0.03847279 -0.01740944 0.33657101
0.108803 -0.04953430 -0.17643436
0.0344423 -0.01558839 0.37258453
-0.08285918 -0.07538830 0.04397265
-0.11170006 0.02590800 0.15809539
0.08721841 0.04723700 0.23337688
-0.06417788 -0.03883331 -0.02883705
-0.09475819 0.04723700 0.15621877
-0.11196229 0.01176515 0.06092889
0.10486608 -0.09302500 0.12333225
-0.11504306 -0.08620833 0.01003477
-0.13078556 0.00923300 0.16729205
-0.08531973 -0.11131705 -0.35190299
0.05170301 0.03658400 0.29514294
-0.02995529 -0.01407524 -0.32188284
0.05959246 0.02590800 0.30631543
-0.07816177 -0.08710146 -0.35190299
0.11774795 -0.00681274 0.28577417
0.10474064 -0.05764875 -0.21104891
0.00287751 0.06119600 -0.21037612
0.13333595 -0.02769909 0.15109583
0.03011934 0.06119600 -0.11525009
0.0789941 0.03495122 0.28499002
-0.07622853 0.06119600 -0.03562373
-0.12441438 -0.02571903 -0.01237128
0.06714066 -0.04086606 0.28927702
0.0763185 0.03658400 0.15212708
-0.03902547 0.05192600 0.25525356
0.02805105 0.04485598 0.32964188
0.03891494 0.06119600 -0.14697799
-0.05326185 0.04723700 0.16358634
0.08937246 0.03059700 0.201981
0.04369334 0.05192600 0.20438423
-0.03846531 0.02590800 0.20065621
0.02599112 0.09424818 -0.21922561
0.10381973 0.03059700 0.17818835
-0.05857526 0.03658400 0.24856627
0.1004204 0.06435980 0.04084756
-0.11509711 -0.01257205 -0.16950537
-0.13075472 -0.02980264 0.16058984
0.01121424 -0.00904634 -0.06086906
0.08621622 -0.08812390 0.01496351
-0.00672361 0.06119600 0.10613419
0.06872501 0.06119600 0.11627103
-0.12682151 -0.01061504 0.23993883
-0.02122356 -0.01126962 0.21682708
0.03940971 -0.01783276 -0.11012734
-0.10965029 0.04692601 0.12956083
0.02862897 0.06119600 -0.07254475
-0.02031537 -0.01100495 0.21710394
-0.04902778 0.06119600 0.03962477
-0.03259859 0.06119600 0.25029303
0.02402048 -0.01175292 -0.16987131
0.04390059 0.06119600 -0.03137858
0.08835128 0.05404370 -0.17538258
-0.05971444 -0.03019557 -0.34964672
-0.09161933 -0.09795391 -0.32560593
0.06377802 0.06119600 -0.10984645
0.02267428 0.02590800 0.33481712
0.04671606 0.05791400 0.258798
-0.12599036 -0.01825550 -0.00950797
0.02115503 -0.01091780 0.17963523
0.07007565 -0.04505968 0.15872185
-0.0584132 0.05788405 -0.27777872
0.0879636 -0.04080213 0.29755597
-0.06082032 -0.03509331 0.08841335
0.01422887 -0.00947755 -0.07760475
-0.04846888 0.03059700 0.26997439
-0.03292891 -0.01541878 0.22054148
0.08952539 0.05192600 0.19722599
-0.0279041 0.01304876 -0.36017062
-0.09524968 0.04558587 0.14898901
0.13972963 0.00373363 0.10790243
-0.01254384 -0.00939939 0.07419294
0.07260706 0.06119600 0.0477513
0.03340626 0.07539381 -0.16064981
-0.08528454 -0.09126796 -0.242115
-0.10622209 -0.00443278 -0.30845164
0.04826727 0.02866300 -0.08245012
0.0281374 0.06119600 -0.22571891
0.13203315 -0.01607858 0.05318976
-0.09507172 -0.09302500 -0.04840816
0.04982034 0.06119600 0.13249444
-0.00234383 -0.00836600 -0.29303266
-0.00503347 0.06119600 -0.07193818
-0.11918077 -0.06809638 0.02118459
0.02223829 0.06119600 -0.06349285
0.07991687 0.00923300 -0.07199098
-0.10114517 -0.06835019 -0.22005745
-0.02908344 -0.01368132 -0.13960776
0.06381102 0.00103486 -0.35265382
-0.08536351 -0.09247007 -0.34319067
0.10866985 -0.00613036 -0.28447035
0.10288765 0.04723700 0.19194062
-0.01767712 -0.01023611 -0.02168198
0.08579641 -0.08439533 -0.3032706
-0.08940167 0.06119600 0.19827204
-0.05399615 -0.02342665 0.38336304
0.07840208 0.06578611 0.24829205
0.10008272 -0.10415215 -0.32496199
0.11250522 -0.00620364 0.30236865
-0.11473584 -0.09302500 0.08307813
-0.11717327 -0.04533536 -0.06145596
0.03871455 -0.01751867 -0.16788943
-0.10186246 -0.07337964 -0.19812608
0.01314079 -0.00229035 0.45725811
-0.00971799 0.03561428 0.34262813
0.01271817 0.07701334 -0.15484364
0.04757819 -0.02052227 -0.35057839
-0.08689921 0.02590800 0.17562459
0.05284822 0.07505022 -0.18981967
0.05865738 0.06119600 -0.19730205
-0.07352382 -0.05201233 -0.21126426
0.07009015 -0.04508109 0.07457265
-0.01902431 0.04124900 0.19820065
0.09642479 -0.08251329 -0.3086719
-0.08411103 -0.08165711 -0.34447459
-0.11188335 0.03018112 0.10712131
0.06836895 0.06088451 -0.10686555
0.09828264 0.06573480 0.01580655
-0.08067634 -0.11123283 -0.33212071
0.13507479 -0.00966993 0.2012603
-0.04271461 0.01992000 0.20603744
-0.0670216 -0.04223593 -0.26005657
-0.06191965 0.01461647 -0.30746289
-0.07632811 0.02590800 0.29877986
-0.03164712 0.02590800 0.16642424
-0.0409021 0.02590800 0.30860625
-0.04734735 0.04124900 0.1748568
-0.05570171 -0.03009522 0.08465681
0.07588077 0.03658400 0.25573288
0.11353715 -0.01046932 -0.20857738
-0.0698672 -0.02916275 0.34912616
0.03961567 0.02330789 0.35228801
0.03049306 0.05791400 0.18374986
-0.07940587 0.03696453 0.27950574
-0.05804704 -0.03208035 0.10129791
-0.13146386 -0.03264803 0.13196572
0.0058542 0.06119600 -0.23183206
-0.02934468 0.04124900 0.17396786
0.04753337 0.01064571 0.36515301
0.02430234 0.08671426 -0.18496897
-0.12487808 0.00923300 0.08387952
0.09735607 0.03279341 -0.12248707
-0.0940687 -0.06900508 -0.31335089
0.11372716 -0.00958393 -0.20819668
0.01593778 0.03658400 0.22507802
0.01460991 0.02590800 0.28341213
0.08035974 -0.06404158 -0.18189391
-0.07579013 0.01992000 0.28512132
0.07910406 -0.06092958 -0.27319872
-0.1368287 0.00428478 0.22202165
0.10626821 0.06700588 0.14332024
0.05159498 -0.02565589 0.10599812
0.10810297 0.05629711 0.12469457
-0.09542578 -0.07336652 -0.28447709
0.08437859 0.04672917 -0.11004047
-0.07659182 0.05791400 0.18600494
-0.06110341 0.03658400 0.30526127
0.02994554 0.03059700 0.25688535
-0.06955178 0.05192600 0.19720917
0.0860247 -0.08553830 0.06248151
-0.04865291 -0.01912738 -0.35071242
-0.05818285 0.05791400 0.19124641
0.13016992 -0.04009637 0.13777304
-0.073249 -0.05146065 0.29998348
0.03177523 0.06143371 0.30666257
-0.0691805 0.01992000 0.2575615
-0.01767921 0.02590800 0.28993949
0.08553176 0.01992000 0.1983154
-0.04340717 0.00923300 -0.34731417
0.0981263 -0.09211519 0.1779526
-0.01146026 -0.00924438 0.08667829
-0.04984092 -0.02513456 -0.14255119
-0.04591722 0.06119600 0.27216252
-0.0424468 -0.02031862 -0.02158448
0.09172593 0.02590800 0.1805707
-0.011395 0.05192600 0.15333894
0.06588588 0.04392531 -0.06273881
0.04895762 -0.02371755 -0.10890715
0.08973039 -0.05740979 -0.34702625
0.04282135 -0.01983566 0.06685391
-0.02247985 0.03658400 0.26526518
-0.02131516 0.02590800 0.14907363
-0.057753 -0.01940246 -0.35068581
-0.06190411 -0.03630044 0.28458406
-0.03379725 -0.04061645 0.38061908
-0.02384988 -0.00723728 0.44881948
-0.06653688 0.04124900 0.23380919
0.03715819 0.03658400 0.24661884
0.06176044 -0.03487296 -0.02188746
0.05722476 0.06119600 -0.18863733
-0.06102441 0.03658400 0.25265894
-0.12413669 -0.06271520 0.08627124
0.03513876 0.09028719 -0.22318877
-0.08567258 0.02297920 0.28757995
-0.11566566 0.01073937 0.09783182
-0.0202837 -0.01099573 -0.19691164
0.06144295 0.03658400 0.22740633
-0.07761364 0.01992000 0.21000574
-0.06514391 0.06119600 -0.05780937
-0.0254313 0.04723700 0.310415
0.00734955 0.03059700 0.1647813
-0.13155406 -0.02399576 0.17431579
0.07876188 0.06119600 0.03089194
0.01462903 0.01992000 0.25842777
0.01031409 -0.00891758 -0.12424476
-0.05983696 -0.03399791 0.17060349
-0.08494717 -0.08612951 -0.12877547
0.08962357 -0.09302500 0.15058247
0.00725425 0.03059700 0.19487219
0.03786058 -0.02362013 0.40584045
-0.00993513 0.06119600 -0.24526197
0.12195307 0.00923300 0.28928951
0.08572335 -0.08402956 -0.26655382
0.03841386 0.01992000 0.27293086
-0.06480204 0.01992000 0.30643938
0.10088554 0.03059700 0.16318227
0.05092915 0.06119600 -0.17812216
0.00411147 0.01992000 0.33039822
0.08787852 -0.05017153 0.28073638
-0.00359235 0.01992000 0.19430731
0.07841671 -0.05954981 0.12638866
-0.0021485 0.02581085 0.35548746
-0.10187508 -0.06591204 -0.21623832
-0.08732807 -0.09302500 -0.05438048
-0.11080239 -0.04212330 -0.15475347
0.05277713 0.04124900 0.30644273
-0.10192431 0.00923300 -0.23295306
-0.10601785 -0.08990954 -0.10193679
-0.02339903 0.02590800 0.16973173
0.02848896 0.03497348 0.34245158
0.07710466 -0.05691603 0.03423304
-0.0360219 0.06119600 -0.18683113
-0.09413269 -0.05132468 0.2625571
0.08263076 -0.07068911 -0.10547423
-0.10476925 0.03059700 0.16928811
0.03463209 0.06119600 -0.07292682
0.0231599 0.01992000 0.17990701
-0.08442426 -0.08322301 0.16395808
-0.04345607 0.07747367 -0.17948298
0.03810264 0.05192600 0.19790121
0.07052649 -0.04572408 0.05835931
-0.10063755 0.04124900 0.18909945
0.11270278 -0.09193687 -0.02033483
0.12245549 -0.03697853 -0.02408773
-0.05765835 0.06119600 0.16755465
0.08614838 -0.08709155 0.18372159
-0.07209022 0.01992000 0.28984214
-0.01211028 0.05192600 0.15450057
0.00923862 0.06119600 -0.07433304
-0.07375001 0.06119600 0.15744751
0.06208075 0.06119600 -0.18494038
-0.09415254 0.05476918 -0.037662
-0.10569293 0.02590800 0.20634017
0.02581108 -0.01227479 0.1679686
-0.05681268 -0.10828241 -0.35669722
-0.07880521 -0.06282232 0.08957963
0.1010622 0.04783625 0.20894834
-0.01048096 0.04337002 -0.30462388
-0.02805074 0.06119600 -0.23563009
0.02463869 0.03658400 0.33957704
0.05472242 0.03059700 0.24879543
0.05665476 0.04723700 0.18137598
0.0364297 0.04723700 0.16792729
-0.03356129 -0.01570450 -0.08578756
-0.09000023 0.00923300 0.36312207
0.11659005 0.02514016 0.15679058
-0.0497901 0.06119600 -0.05268474
-0.03532137 0.06119600 -0.07622703
-0.10600108 0.00943324 0.3466316
0.0419749 0.03059700 0.15057943
0.00479553 0.05791400 0.17341469
0.11660448 0.00959556 0.32159649
0.04149199 0.04124900 0.32623276
-0.0138696 -0.00958905 0.03066053
0.04747961 0.04723700 0.16657181
0.0826425 0.06608944 0.23913005
-0.00291856 0.02590800 0.26895014
-0.00759103 0.04124900 0.22656213
0.04485026 0.06119600 0.22276317
-0.00287447 0.05791400 0.2686255
-0.08859621 0.01794019 -0.26809781
0.10722305 0.00923300 -0.06337274
-0.06657979 0.05192600 0.2570033
-0.08919897 0.04285262 -0.18544004
0.00801205 -0.00319772 0.45571028
0.07016442 0.04723700 0.16838759
-0.06521885 -0.03999290 0.04116887
-0.08129954 0.05306752 -0.25715943
0.1000585 0.06604308 0.05996316
-0.09037655 0.06119600 0.09161548
0.11160838 -0.03050244 -0.18540066
-0.08040473 -0.06750502 -0.11188865
-0.1215314 -0.00733522 -0.09603858
-0.13319445 -0.02724681 0.12350279
-0.07274274 -0.08600714 -0.31356023
0.13596928 -0.01729593 0.11384391
-0.08707953 -0.08416225 -0.35933362
-0.00358296 0.04723700 0.20366879
-0.13161203 0.00923300 0.12670792
0.09985322 -0.07588556 0.20411762
